15.286 -10.233 -1.154 0.38 18.4312 0.0
15.224 -10.261 -1.151 0.37 18.3952 0.0
15.144 -10.277 -1.147 0.48 18.3378 0.0
15.205 -10.388 -1.156 0.23 18.451 0.0
15.049 -10.351 -1.144 0.48 18.3009 0.0
15.069 -10.47 -1.151 0.4 18.3853 0.0
14.943 -10.452 -1.142 0.41 18.2713 0.0
15.018 -10.575 -1.152 0.38 18.4038 0.0
14.944 -10.593 -1.148 0.32 18.3535 0.0
0.0 0.0 0.0 0.0 0.0 0.0
14.881 -10.619 -1.146 0.38 18.3172 0.0
14.808 -10.673 -1.144 0.33 18.2893 0.0
14.794 -10.733 -1.145 0.43 18.3131 0.0
14.815 -10.82 -1.15 0.4 18.3815 0.0
14.791 -10.873 -1.151 0.44 18.3935 0.0
14.724 -10.896 -1.148 0.31 18.3531 0.0
14.664 -10.923 -1.146 0.38 18.321 0.0
14.644 -10.98 -1.147 0.35 18.3391 0.0
14.622 -10.999 -1.147 0.37 18.3329 0.0
14.65 -11.092 -1.153 0.38 18.4115 0.0
14.594 -11.122 -1.151 0.37 18.385 0.0
14.594 -11.195 -1.154 0.37 18.4294 0.0
14.519 -11.21 -1.15 0.36 18.379 0.0
14.564 -11.318 -1.158 0.36 18.481 0.0
14.522 -11.359 -1.157 0.35 18.4731 0.0
14.285 -11.283 -1.14 0.43 18.2392 0.0
14.517 -11.539 -1.165 0.15 18.5809 0.0
14.136 -11.31 -1.133 0.5 18.1391 0.0
14.049 -11.313 -1.128 0.17 18.0729 0.0
14.99 -12.146 -1.22 0.21 19.3317 0.0
0.0 0.0 0.0 0.0 0.0 0.0
13.809 -11.264 -1.112 0.32 17.855 0.0
13.812 -11.339 -1.115 0.43 17.905 0.0
14.804 -12.268 -1.215 0.21 19.265 0.0
14.761 -12.311 -1.215 0.26 19.2594 0.0
14.537 -12.202 -1.197 0.22 19.017 0.0
13.362 -11.29 -1.088 0.58 17.5269 0.0
14.599 -12.411 -1.21 0.14 19.1997 0.0
14.545 -12.443 -1.209 0.21 19.1793 0.0
14.51 -12.453 -1.208 0.27 19.1592 0.0
14.468 -12.496 -1.207 0.29 19.1554 0.0
14.425 -12.539 -1.207 0.27 19.1511 0.0
14.366 -12.567 -1.205 0.29 19.1249 0.0
14.33 -12.615 -1.205 0.27 19.1295 0.0
12.638 -11.201 -1.043 0.47 16.9195 0.0
14.213 -12.672 -1.202 0.2 19.0797 0.0
14.171 -12.754 -1.203 0.3 19.1031 0.0
14.114 -12.784 -1.202 0.28 19.0809 0.0
14.059 -12.815 -1.2 0.3 19.0609 0.0
14.022 -12.862 -1.201 0.29 19.0654 0.0
13.998 -12.921 -1.202 0.29 19.0877 0.0
13.963 -12.97 -1.203 0.32 19.0954 0.0
13.938 -12.988 -1.202 0.32 19.0893 0.0
13.877 -13.012 -1.2 0.44 19.061 0.0
13.813 -13.034 -1.198 0.36 19.0294 0.0
13.748 -13.055 -1.196 0.46 18.9966 0.0
13.679 -13.071 -1.193 0.38 18.9576 0.0
13.587 -13.066 -1.188 0.48 18.8875 0.0
13.521 -13.085 -1.185 0.27 18.8531 0.0
13.448 -13.055 -1.18 0.53 18.7796 0.0
13.351 -13.043 -1.174 0.29 18.7015 0.0
13.263 -13.038 -1.169 0.52 18.635 0.0
13.188 -13.046 -1.166 0.32 18.5871 0.0
13.123 -13.064 -1.163 0.48 18.5535 0.0
14.509 14.422 -1.44 0.17 20.508 0.0
0.0 0.0 0.0 0.0 0.0 0.0
14.673 14.494 -1.454 0.3 20.6758 0.0
14.619 14.35 -1.442 0.38 20.5358 0.0
14.818 14.454 -1.46 0.14 20.7515 0.0
14.974 14.468 -1.469 0.21 20.8735 0.0
14.948 14.354 -1.462 0.33 20.7754 0.0
15.051 14.362 -1.468 0.17 20.8556 0.0
15.179 14.392 -1.477 0.42 20.9693 0.0
15.286 14.403 -1.484 0.34 21.0549 0.0
15.17 14.204 -1.466 0.12 20.8334 0.0
15.295 14.231 -1.475 0.58 20.9436 0.0
15.167 14.023 -1.456 0.19 20.7075 0.0
15.227 14.035 -1.46 0.28 20.7599 0.0
15.422 14.125 -1.477 0.47 20.9651 0.0
15.49 14.098 -1.479 0.29 20.9972 0.0
15.503 14.021 -1.476 0.33 20.955 0.0
15.727 14.134 -1.495 0.29 21.1977 0.0
15.804 14.113 -1.499 0.31 21.2412 0.0
15.843 14.015 -1.496 0.36 21.2052 0.0
15.821 13.907 -1.489 0.44 21.117 0.0
15.892 13.881 -1.492 0.29 21.1533 0.0
0.0 0.0 0.0 0.0 0.0 0.0
15.949 13.843 -1.493 0.39 21.1714 0.0
16.058 13.849 -1.5 0.33 21.258 0.0
16.157 13.846 -1.506 0.35 21.3314 0.0
16.258 13.844 -1.512 0.36 21.4071 0.0
16.467 13.888 -1.527 0.34 21.5956 0.0
16.619 13.927 -1.539 0.23 21.7375 0.0
19.383 16.135 -1.822 0.14 25.2855 0.0
19.432 16.072 -1.822 0.23 25.283 0.0
19.462 15.995 -1.82 0.19 25.2571 0.0
19.525 15.944 -1.821 0.19 25.2736 0.0
19.533 15.899 -1.82 0.29 25.2513 0.0
19.556 15.816 -1.817 0.16 25.2168 0.0
19.623 15.769 -1.819 0.12 25.2395 0.0
19.657 15.694 -1.817 0.13 25.2191 0.0
19.694 15.623 -1.816 0.0 25.2038 0.0
19.774 15.585 -1.819 0.11 25.2431 0.0
19.852 15.496 -1.82 0.18 25.2496 0.0
19.916 15.445 -1.821 0.2 25.2688 0.0
0.0 0.0 0.0 0.0 0.0 0.0
19.963 15.382 -1.821 0.31 25.2674 0.0
20.005 15.314 -1.82 0.16 25.2593 0.0
20.04 15.241 -1.819 0.21 25.2428 0.0
20.061 15.158 -1.816 0.18 25.2093 0.0
20.117 15.101 -1.817 0.25 25.2197 0.0
20.185 15.053 -1.819 0.21 25.2455 0.0
20.275 14.972 -1.821 0.18 25.2696 0.0
20.36 14.936 -1.825 0.22 25.3169 0.0
20.426 14.886 -1.827 0.34 25.3407 0.0
20.457 14.811 -1.825 0.17 25.3216 0.0
20.511 14.752 -1.826 0.21 25.3309 0.0
20.533 14.67 -1.824 0.18 25.301 0.0
20.563 14.642 -1.824 0.21 25.3091 0.0
20.565 14.547 -1.82 0.2 25.2556 0.0
20.638 14.502 -1.823 0.23 25.2895 0.0
20.685 14.438 -1.823 0.2 25.2913 0.0
20.735 14.376 -1.823 0.34 25.2969 0.0
20.802 14.326 -1.825 0.17 25.3237 0.0
20.876 14.232 -1.826 0.18 25.3316 0.0
20.917 14.164 -1.826 0.21 25.3273 0.0
0.0 0.0 0.0 0.0 0.0 0.0
20.935 14.08 -1.823 0.18 25.2951 0.0
20.959 14.001 -1.821 0.21 25.271 0.0
20.976 13.918 -1.819 0.34 25.2391 0.0
20.995 13.835 -1.816 0.17 25.209 0.0
21.015 13.707 -1.812 0.17 25.1554 0.0
21.051 13.637 -1.811 0.12 25.1474 0.0
21.057 13.547 -1.808 0.19 25.1035 0.0
21.109 13.487 -1.809 0.22 25.115 0.0
21.147 13.417 -1.808 0.2 25.1094 0.0
21.206 13.361 -1.81 0.2 25.1294 0.0
21.249 13.296 -1.81 0.3 25.1313 0.0
21.272 13.263 -1.81 0.17 25.1333 0.0
21.318 13.2 -1.811 0.13 25.1392 0.0
21.39 13.151 -1.814 0.16 25.1748 0.0
21.445 13.092 -1.815 0.2 25.1909 0.0
21.491 13.028 -1.815 0.3 25.1969 0.0
21.542 12.967 -1.816 0.17 25.2091 0.0
21.583 12.899 -1.816 0.13 25.2093 0.0
21.695 12.827 -1.821 0.2 25.269 0.0
21.747 12.766 -1.822 0.29 25.2829 0.0
21.792 12.701 -1.823 0.17 25.2889 0.0
0.0 0.0 0.0 0.0 0.0 0.0
21.843 12.638 -1.824 0.12 25.3014 0.0
21.894 12.577 -1.825 0.18 25.3152 0.0
21.965 12.526 -1.828 0.23 25.3516 0.0
22.002 12.455 -1.828 0.16 25.3487 0.0
22.042 12.341 -1.826 0.16 25.3275 0.0
22.089 12.277 -1.827 0.11 25.3375 0.0
22.115 12.2 -1.825 0.17 25.3228 0.0
22.18 12.145 -1.828 0.12 25.3534 0.0
22.221 12.077 -1.828 0.16 25.3568 0.0
22.261 12.008 -1.828 0.12 25.3591 0.0
22.283 11.975 -1.829 0.16 25.3629 0.0
22.326 11.908 -1.829 0.11 25.3692 0.0
22.353 11.832 -1.828 0.24 25.3573 0.0
22.367 11.75 -1.826 0.23 25.3314 0.0
22.393 11.674 -1.825 0.16 25.3191 0.0
22.415 11.596 -1.824 0.11 25.3027 0.0
22.461 11.486 -1.823 0.25 25.2932 0.0
22.511 11.423 -1.824 0.24 25.3092 0.0
22.552 11.355 -1.825 0.24 25.3152 0.0
22.581 11.28 -1.824 0.24 25.3074 0.0
0.0 0.0 0.0 0.0 0.0 0.0
22.623 11.213 -1.825 0.23 25.3153 0.0
22.658 11.141 -1.825 0.15 25.3148 0.0
22.693 11.07 -1.825 0.1 25.315 0.0
22.763 10.972 -1.826 0.1 25.3352 0.0
22.823 10.912 -1.829 0.16 25.3635 0.0
22.869 10.846 -1.83 0.16 25.3767 0.0
22.92 10.782 -1.831 0.16 25.3955 0.0
22.961 10.714 -1.832 0.16 25.4038 0.0
23.012 10.65 -1.833 0.17 25.4231 0.0
23.018 10.609 -1.832 0.13 25.4113 0.0
20.697 9.463 -1.625 0.0 22.8157 1.0
20.685 9.379 -1.621 0.0 22.7698 1.0
20.765 9.337 -1.626 0.49 22.8256 1.0
0.0 0.0 0.0 0.0 0.0 0.0
21.166 9.357 -1.656 0.28 23.2012 1.0
21.223 9.303 -1.658 0.18 23.2317 1.0
21.34 9.274 -1.666 0.13 23.3276 1.0
23.37 10.023 -1.839 0.17 25.4951 0.0
23.255 9.887 -1.826 0.16 25.3354 0.0
23.372 9.851 -1.834 0.2 25.4294 0.0
0.0 0.0 0.0 0.0 0.0 0.0
23.388 9.771 -1.833 0.23 25.4132 0.0
23.411 9.694 -1.832 0.31 25.4048 0.0
23.475 9.634 -1.835 0.2 25.4412 0.0
23.76 9.621 -1.856 0.16 25.7011 0.0
23.939 9.605 -1.868 0.34 25.8616 0.0
24.111 9.587 -1.881 0.26 26.0152 0.0
24.162 9.519 -1.883 0.17 26.0377 0.0
20.63 8.057 -1.576 0.07 22.2035 1.0
20.629 7.982 -1.574 0.0 22.1753 1.0
20.64 7.949 -1.573 0.0 22.1736 1.0
20.711 7.902 -1.577 0.35 22.2233 1.0
20.984 7.93 -1.599 0.11 22.4893 1.0
21.1 7.898 -1.607 0.12 22.587 1.0
21.217 7.866 -1.614 0.0 22.6857 0.0
23.763 8.722 -1.83 0.2 25.3792 1.0
23.682 8.566 -1.82 0.27 25.2493 1.0
23.636 8.465 -1.813 0.29 25.1715 1.0
23.563 8.355 -1.805 0.16 25.0655 1.0
23.517 8.256 -1.799 0.13 24.9889 1.0
23.485 8.162 -1.794 0.17 24.9275 1.0
23.45 8.068 -1.789 0.21 24.8635 1.0
0.0 0.0 0.0 0.0 0.0 0.0
23.384 7.922 -1.78 0.2 24.7535 1.0
23.35 7.829 -1.775 0.3 24.6914 1.0
23.282 7.725 -1.767 0.18 24.5937 0.0
23.262 7.637 -1.763 0.13 24.5469 0.0
23.252 7.553 -1.76 0.17 24.5112 0.0
23.236 7.467 -1.757 0.21 24.4695 0.0
23.211 7.379 -1.753 0.18 24.4187 0.0
23.24 7.308 -1.754 0.21 24.425 0.0
23.189 7.252 -1.748 0.18 24.3593 0.0
23.193 7.173 -1.747 0.14 24.3397 0.0
23.163 7.085 -1.742 0.17 24.2849 0.0
23.128 6.995 -1.738 0.2 24.2251 0.0
23.057 6.894 -1.73 0.29 24.1277 0.0
22.982 6.793 -1.722 0.22 24.0267 0.0
22.88 6.646 -1.711 0.14 23.8871 0.0
22.859 6.562 -1.707 0.17 23.8434 0.0
22.831 6.477 -1.703 0.17 23.793 0.0
22.796 6.39 -1.698 0.16 23.7355 0.0
22.756 6.302 -1.693 0.11 23.6731 0.0
22.741 6.221 -1.691 0.23 23.6371 0.0
22.718 6.138 -1.687 0.14 23.593 0.0
22.678 6.089 -1.683 0.09 23.5415 0.0
22.662 6.008 -1.68 0.13 23.505 0.0
22.621 5.921 -1.675 0.09 23.443 0.0
22.593 5.838 -1.671 0.09 23.3948 0.0
22.552 5.752 -1.666 0.09 23.3335 0.0
22.508 5.666 -1.661 0.09 23.2696 0.0
22.491 5.586 -1.658 0.15 23.2335 0.0
22.437 5.536 -1.653 0.1 23.1689 0.0
22.391 5.45 -1.648 0.16 23.1036 0.0
22.346 5.365 -1.643 0.11 23.0397 0.0
22.31 5.282 -1.638 0.28 22.9852 0.0
22.253 5.195 -1.632 0.17 22.9095 0.0
22.226 5.115 -1.629 0.13 22.8651 0.0
22.157 4.989 -1.621 0.2 22.7695 0.0
22.131 4.911 -1.618 0.28 22.727 0.0
22.096 4.83 -1.614 0.16 22.6753 0.0
22.074 4.753 -1.611 0.12 22.6373 0.0
22.058 4.677 -1.608 0.14 22.6056 0.0
22.018 4.596 -1.604 0.11 22.5497 0.0
22.001 4.521 -1.601 0.23 22.5177 0.0
21.959 4.476 -1.597 0.15 22.4674 0.0
21.916 4.396 -1.592 0.1 22.4092 0.0
21.887 4.319 -1.589 0.14 22.3656 0.0
21.842 4.239 -1.584 0.1 22.3059 0.0
21.798 4.159 -1.579 0.17 22.2473 0.0
21.762 4.081 -1.575 0.17 22.1973 0.0
21.716 4.002 -1.571 0.2 22.1375 0.0
21.654 3.921 -1.564 0.5 22.0616 0.0
21.619 3.879 -1.561 0.21 22.0196 0.0
21.603 3.807 -1.559 0.34 21.9912 0.0
21.65 3.745 -1.562 0.18 22.027 0.0
21.583 3.663 -1.555 0.2 21.9468 0.0
21.603 3.597 -1.556 0.25 21.9556 0.0
21.588 3.525 -1.554 0.21 21.929 0.0
21.597 3.422 -1.553 0.18 21.9215 0.0
21.613 3.355 -1.554 0.21 21.927 0.0
21.64 3.289 -1.555 0.25 21.9437 0.0
21.662 3.223 -1.556 0.2 21.9557 0.0
21.676 3.156 -1.556 0.38 21.9597 0.0
21.683 3.087 -1.556 0.17 21.9569 0.0
21.693 3.019 -1.556 0.35 21.9573 0.0
21.692 2.984 -1.556 0.17 21.9515 0.0
21.693 2.915 -1.555 0.34 21.9431 0.0
21.692 2.846 -1.554 0.18 21.933 0.0
21.691 2.776 -1.553 0.23 21.923 0.0
21.7 2.708 -1.553 0.18 21.9234 0.0
21.714 2.641 -1.554 0.25 21.9291 0.0
21.707 2.57 -1.553 0.19 21.9137 0.0
21.699 2.535 -1.552 0.36 21.9016 0.0
21.683 2.464 -1.55 0.19 21.8775 0.0
21.688 2.396 -1.55 0.37 21.8749 0.0
21.664 2.324 -1.547 0.19 21.8431 0.0
21.693 2.258 -1.549 0.38 21.8651 0.0
21.684 2.189 -1.548 0.19 21.8491 0.0
21.701 2.121 -1.548 0.37 21.8593 0.0
21.708 2.053 -1.548 0.19 21.8597 0.0
21.721 1.951 -1.549 0.18 21.8634 0.0
21.735 1.884 -1.549 0.38 21.8714 0.0
21.721 1.814 -1.548 0.19 21.8515 0.0
21.746 1.747 -1.549 0.36 21.871 0.0
21.746 1.678 -1.549 0.18 21.8656 0.0
21.755 1.61 -1.549 0.34 21.8694 0.0
21.753 1.576 -1.549 0.19 21.865 0.0
21.758 1.508 -1.549 0.34 21.8651 0.0
21.751 1.438 -1.548 0.18 21.8534 0.0
21.751 1.37 -1.548 0.23 21.849 0.0
21.754 1.301 -1.547 0.19 21.8477 0.0
21.744 1.232 -1.546 0.35 21.8337 0.0
21.735 1.163 -1.545 0.17 21.8209 0.0
21.741 1.129 -1.546 0.33 21.8251 0.0
21.721 1.06 -1.544 0.18 21.8016 0.0
21.722 0.992 -1.544 0.22 21.7994 0.0
21.705 0.923 -1.542 0.18 21.7793 0.0
21.74 0.856 -1.545 0.21 21.8116 0.0
21.748 0.787 -1.545 0.18 21.817 0.0
21.761 0.719 -1.546 0.2 21.8277 0.0
21.774 0.617 -1.547 0.17 21.8376 0.0
21.802 0.549 -1.549 0.12 21.8639 0.0
21.799 0.481 -1.548 0.16 21.8592 0.0
21.807 0.412 -1.549 0.11 21.8658 0.0
21.828 0.344 -1.55 0.25 21.8857 0.0
21.827 0.276 -1.55 0.24 21.8837 0.0
21.815 0.207 -1.549 0.23 21.8709 0.0
21.812 0.173 -1.549 0.16 21.8676 0.0
21.782 0.104 -1.547 0.17 21.8371 0.0
21.769 0.036 -1.545 0.18 21.8238 0.0
21.737 -0.033 -1.543 0.18 21.7917 0.0
21.705 -0.101 -1.54 0.3 21.7598 0.0
21.674 -0.169 -1.538 0.18 21.7292 0.0
21.664 -0.237 -1.537 0.22 21.7197 0.0
21.651 -0.271 -1.536 0.19 21.7071 0.0
21.67 -0.339 -1.538 0.23 21.7272 0.0
21.663 -0.407 -1.537 0.18 21.7213 0.0
21.672 -0.475 -1.538 0.23 21.7317 0.0
21.648 -0.543 -1.536 0.2 21.7092 0.0
21.652 -0.611 -1.537 0.23 21.7151 0.0
21.628 -0.678 -1.535 0.19 21.693 0.0
21.617 -0.78 -1.534 0.18 21.6854 0.0
21.634 -0.849 -1.536 0.21 21.7051 0.0
21.644 -0.917 -1.537 0.3 21.7179 0.0
21.656 -0.986 -1.538 0.16 21.7329 0.0
21.671 -1.055 -1.54 0.12 21.7512 0.0
21.676 -1.123 -1.54 0.16 21.7596 0.0
21.68 -1.158 -1.541 0.11 21.7655 0.0
21.68 -1.226 -1.541 0.25 21.7692 0.0
21.682 -1.294 -1.542 0.25 21.7752 0.0
21.666 -1.362 -1.541 0.25 21.7634 0.0
21.646 -1.429 -1.539 0.28 21.7476 0.0
21.605 -1.494 -1.537 0.16 21.7111 0.0
21.583 -1.561 -1.535 0.13 21.6938 0.0
21.55 -1.626 -1.533 0.18 21.6656 0.0
21.533 -1.659 -1.532 0.23 21.6511 0.0
21.546 -1.728 -1.533 0.2 21.6695 0.0
21.564 -1.798 -1.535 0.25 21.6932 0.0
21.723 -1.88 -1.548 0.19 21.8591 0.0
21.761 -1.952 -1.552 0.4 21.9034 0.0
21.697 -2.015 -1.547 0.3 21.8452 0.0
20.803 -2.03 -1.476 0.35 20.9539 0.0
20.798 -2.096 -1.476 0.18 20.9554 0.0
20.936 -2.176 -1.488 0.28 21.1013 0.0
20.961 -2.245 -1.49 0.26 21.1335 0.0
20.997 -2.316 -1.494 0.3 21.1771 0.0
21.093 -2.394 -1.502 0.29 21.2815 0.0
21.081 -2.46 -1.502 0.27 21.2771 0.0
21.172 -2.504 -1.509 0.29 21.3729 0.0
21.153 -2.569 -1.509 0.27 21.3618 0.0
21.087 -2.628 -1.504 0.2 21.3033 0.0
21.002 -2.685 -1.498 0.4 21.2259 0.0
21.017 -2.754 -1.5 0.21 21.2497 0.0
21.166 -2.841 -1.512 0.21 21.4093 0.0
21.054 -2.893 -1.504 0.45 21.305 0.0
21.129 -2.938 -1.51 0.14 21.3857 0.0
21.141 -3.007 -1.512 0.2 21.4072 0.0
20.814 -3.027 -1.486 0.19 21.0854 0.0
20.798 -3.091 -1.486 0.25 21.0789 0.0
20.105 -3.052 -1.43 0.19 20.3855 0.0
19.607 -3.039 -1.391 0.03 19.8898 0.0
21.65 -3.428 -1.558 0.0 21.975 0.0
21.683 -3.538 -1.562 0.21 22.0252 0.0
21.745 -3.618 -1.568 0.21 22.0996 0.0
21.741 -3.688 -1.568 0.28 22.1073 0.0
21.731 -3.757 -1.568 0.18 22.109 0.0
21.755 -3.831 -1.571 0.45 22.1455 0.0
21.725 -3.896 -1.57 0.16 22.1273 0.0
21.597 -3.908 -1.56 0.28 22.0031 0.0
21.781 -4.012 -1.576 0.23 22.2034 0.0
21.774 -4.082 -1.576 0.45 22.2093 0.0
21.636 -4.126 -1.566 0.18 22.0815 0.0
21.689 -4.207 -1.572 0.18 22.1491 0.0
21.563 -4.253 -1.562 0.2 22.0339 0.0
21.504 -4.311 -1.559 0.32 21.9872 0.0
21.556 -4.357 -1.563 0.16 22.0474 0.0
21.409 -4.397 -1.553 0.2 21.911 0.0
21.224 -4.429 -1.538 0.34 21.7357 0.0
21.161 -4.485 -1.534 0.22 21.6854 0.0
21.127 -4.547 -1.533 0.29 21.6651 0.0
20.704 -4.524 -1.499 0.18 21.2455 0.0
20.404 -4.559 -1.476 0.31 20.9592 0.0
19.97 -4.527 -1.442 0.16 20.5274 0.0
19.602 -4.508 -1.413 0.07 20.1633 0.0
21.216 -4.951 -1.547 0.0 21.8409 0.0
20.954 -4.959 -1.527 0.0 21.5869 0.0
21.034 -5.048 -1.534 0.24 21.6856 0.0
21.022 -5.115 -1.535 0.23 21.6897 0.0
20.905 -5.156 -1.526 0.46 21.5855 0.0
20.891 -5.188 -1.526 0.18 21.5796 0.0
20.768 -5.226 -1.517 0.23 21.4691 0.0
20.427 -5.208 -1.49 0.3 21.133 0.0
20.316 -5.248 -1.482 0.25 21.0352 0.0
20.134 -5.268 -1.469 0.23 20.8636 0.0
20.113 -5.33 -1.468 0.47 20.859 0.0
20.002 -5.368 -1.461 0.14 20.7613 0.0
19.984 -5.464 -1.461 0.26 20.769 0.0
0.0 0.0 0.0 0.0 0.0 0.0
20.027 -5.544 -1.466 0.14 20.8318 0.0
20.266 -5.679 -1.488 0.18 21.0992 0.0
20.325 -5.765 -1.494 0.17 21.1795 0.0
20.119 -5.774 -1.478 0.14 20.9833 0.0
20.149 -5.886 -1.483 0.14 21.0434 0.0
19.968 -5.901 -1.469 0.11 20.8734 0.0
19.905 -5.95 -1.466 0.27 20.8269 0.0
19.896 -6.016 -1.467 0.33 20.8374 0.0
19.812 -6.058 -1.461 0.14 20.7689 0.0
19.668 -6.082 -1.451 0.12 20.638 0.0
19.418 -6.071 -1.431 0.16 20.3952 0.0
19.247 -6.05 -1.418 0.12 20.2252 0.0
19.023 -6.045 -1.4 0.16 20.0094 0.0
18.776 -6.032 -1.381 0.11 19.7694 0.0
18.497 -6.006 -1.359 0.15 19.4951 0.0
18.316 -6.01 -1.345 0.08 19.3237 0.0
20.205 -6.704 -1.507 0.05 21.3414 0.0
20.109 -6.777 -1.501 0.19 21.2733 0.0
20.165 -6.867 -1.508 0.23 21.3555 0.0
0.0 0.0 0.0 0.0 0.0 0.0
20.164 -6.937 -1.51 0.18 21.3773 0.0
20.159 -7.006 -1.511 0.25 21.3951 0.0
20.131 -7.068 -1.511 0.21 21.3892 0.0
20.075 -7.119 -1.508 0.31 21.3532 0.0
20.038 -7.176 -1.507 0.16 21.3375 0.0
19.925 -7.242 -1.5 0.3 21.2533 0.0
19.867 -7.292 -1.497 0.17 21.2158 0.0
19.827 -7.348 -1.495 0.13 21.1976 0.0
19.783 -7.402 -1.494 0.18 21.1752 0.0
19.76 -7.464 -1.494 0.22 21.1755 0.0
19.693 -7.51 -1.49 0.19 21.129 0.0
19.618 -7.552 -1.485 0.21 21.0738 0.0
19.433 -7.515 -1.471 0.17 20.8873 0.0
19.136 -7.47 -1.447 0.14 20.5932 0.0
19.154 -7.546 -1.451 0.17 20.6379 0.0
19.022 -7.563 -1.441 0.34 20.521 0.0
18.827 -7.554 -1.426 0.19 20.336 0.0
18.662 -7.556 -1.414 0.35 20.1832 0.0
18.271 -7.497 -1.383 0.23 19.7977 0.0
18.078 -7.484 -1.369 0.2 19.6137 0.0
17.931 -7.489 -1.358 0.16 19.4795 0.0
17.77 -7.487 -1.346 0.08 19.3298 0.0
0.0 0.0 0.0 0.0 0.0 0.0
19.213 -8.169 -1.474 0.0 20.9295 0.0
19.094 -8.189 -1.466 0.47 20.8276 0.0
19.052 -8.242 -1.464 0.24 20.8099 0.0
18.889 -8.241 -1.452 0.25 20.6595 0.0
18.717 -8.271 -1.441 0.29 20.5137 0.0
18.607 -8.293 -1.433 0.27 20.4217 0.0
18.433 -8.285 -1.42 0.31 20.2591 0.0
18.304 -8.296 -1.411 0.3 20.1457 0.0
18.138 -8.289 -1.399 0.28 19.9913 0.0
18.0 -8.26 -1.388 0.29 19.8533 0.0
17.837 -8.253 -1.376 0.27 19.7019 0.0
17.681 -8.248 -1.364 0.29 19.5578 0.0
17.529 -8.244 -1.353 0.3 19.418 0.0
17.377 -8.239 -1.342 0.38 19.278 0.0
17.268 -8.254 -1.334 0.29 19.1857 0.0
17.201 -8.288 -1.331 0.33 19.1399 0.0
17.178 -8.344 -1.331 0.38 19.1436 0.0
17.223 -8.466 -1.339 0.31 19.2379 0.0
17.044 -8.445 -1.325 0.34 19.0676 0.0
17.075 -8.527 -1.33 0.32 19.132 0.0
17.035 -8.574 -1.329 0.32 19.1173 0.0
0.0 0.0 0.0 0.0 0.0 0.0
17.026 -8.637 -1.331 0.41 19.1378 0.0
16.801 -8.622 -1.314 0.37 18.9298 0.0
16.683 -8.628 -1.306 0.4 18.8274 0.0
16.626 -8.664 -1.303 0.35 18.7933 0.0
16.553 -8.692 -1.299 0.48 18.7414 0.0
16.501 -8.731 -1.297 0.31 18.7135 0.0
16.333 -8.708 -1.284 0.36 18.5538 0.0
16.232 -8.719 -1.277 0.42 18.4697 0.0
16.118 -8.691 -1.268 0.38 18.3557 0.0
16.049 -8.718 -1.264 0.38 18.3077 0.0
15.934 -8.721 -1.256 0.41 18.2078 0.0
15.856 -8.743 -1.252 0.36 18.1499 0.0
15.755 -8.752 -1.245 0.33 18.0656 0.0
15.675 -8.772 -1.24 0.36 18.0053 0.0
15.616 -8.804 -1.237 0.39 17.9694 0.0
15.639 -8.914 -1.243 0.39 18.0439 0.0
15.567 -8.938 -1.239 0.41 17.9932 0.0
15.432 -8.925 -1.229 0.34 17.8693 0.0
15.409 -8.976 -1.23 0.4 17.8751 0.0
15.325 -8.991 -1.224 0.4 17.8099 0.0
15.277 -9.028 -1.223 0.34 17.7873 0.0
15.239 -9.038 -1.22 0.36 17.7595 0.0
15.161 -9.056 -1.216 0.4 17.7016 0.0
15.141 -9.109 -1.217 0.36 17.7117 0.0
15.111 -9.155 -1.216 0.39 17.7097 0.0
15.044 -9.18 -1.213 0.47 17.6654 0.0
15.0 -9.217 -1.211 0.27 17.6471 0.0
14.917 -9.231 -1.206 0.32 17.5836 0.0
14.921 -9.266 -1.208 0.41 17.6055 0.0
14.829 -9.274 -1.202 0.35 17.5314 0.0
14.788 -9.313 -1.201 0.36 17.5174 0.0
14.771 -9.367 -1.202 0.41 17.5319 0.0
14.713 -9.395 -1.199 0.39 17.4979 0.0
14.729 -9.47 -1.204 0.37 17.552 0.0
14.612 -9.46 -1.195 0.31 17.4479 0.0
14.547 -9.483 -1.192 0.38 17.4058 0.0
14.577 -9.601 -1.199 0.34 17.4959 0.0
14.465 -9.592 -1.191 0.31 17.3972 0.0
14.427 -9.632 -1.191 0.42 17.3877 0.0
14.415 -9.69 -1.192 0.36 17.41 0.0
14.322 -9.692 -1.186 0.33 17.3338 0.0
14.265 -9.719 -1.184 0.37 17.3018 0.0
14.205 -9.711 -1.179 0.55 17.2475 0.0
14.25 -9.808 -1.187 0.18 17.3398 0.0
14.126 -9.788 -1.178 0.36 17.226 0.0
14.097 -9.833 -1.178 0.31 17.2279 0.0
14.072 -9.882 -1.178 0.4 17.2355 0.0
13.995 -9.894 -1.174 0.36 17.1793 0.0
13.919 -9.905 -1.169 0.35 17.1235 0.0
14.012 -10.005 -1.18 0.35 17.2577 0.0
13.896 -9.988 -1.172 0.32 17.1532 0.0
13.768 -9.962 -1.162 0.35 17.0338 0.0
13.819 -10.065 -1.17 0.32 17.1359 0.0
13.737 -10.072 -1.165 0.34 17.0736 0.0
13.766 -10.16 -1.172 0.42 17.1494 0.0
13.698 -10.176 -1.168 0.38 17.1041 0.0
13.742 -10.31 -1.177 0.35 17.2199 0.0
13.759 -10.39 -1.182 0.34 17.2818 0.0
13.652 -10.376 -1.175 0.37 17.1878 0.0
13.597 -10.402 -1.172 0.38 17.1597 0.0
13.615 -10.484 -1.177 0.38 17.224 0.0
13.501 -10.464 -1.169 0.4 17.1213 0.0
13.513 -10.507 -1.172 0.34 17.1573 0.0
13.478 -10.549 -1.172 0.37 17.1555 0.0
13.417 -10.569 -1.169 0.41 17.1198 0.0
13.384 -10.611 -1.169 0.37 17.1199 0.0
13.36 -10.66 -1.17 0.35 17.1317 0.0
13.331 -10.706 -1.171 0.36 17.1378 0.0
13.254 -10.713 -1.166 0.36 17.0821 0.0
13.237 -10.733 -1.166 0.38 17.0814 0.0
13.199 -10.771 -1.166 0.34 17.0759 0.0
13.125 -10.78 -1.161 0.48 17.0242 0.0
13.098 -10.827 -1.162 0.34 17.0333 0.0
13.09 -10.89 -1.165 0.3 17.0674 0.0
13.064 -10.937 -1.166 0.34 17.0776 0.0
13.009 -10.962 -1.164 0.34 17.0515 0.0
12.977 -11.04 -1.166 0.25 17.0776 0.0
12.98 -11.113 -1.17 0.38 17.1274 0.0
12.998 -11.199 -1.175 0.2 17.1973 0.0
12.94 -11.22 -1.173 0.29 17.1671 0.0
12.737 -11.114 -1.155 0.3 16.9436 0.0
12.799 -11.24 -1.165 0.38 17.0736 0.0
12.848 -11.354 -1.174 0.46 17.1861 0.0
12.633 -11.199 -1.153 0.23 16.9216 0.0
12.495 -11.147 -1.142 0.38 16.7835 0.0
13.207 -11.859 -1.223 0.14 17.792 0.0
12.722 -11.494 -1.174 0.22 17.1854 0.0
12.194 -11.086 -1.121 0.32 16.5182 0.0
13.165 -12.047 -1.231 0.2 17.8875 0.0
13.197 -12.153 -1.238 0.43 17.983 0.0
13.146 -12.144 -1.235 0.16 17.9393 0.0
13.106 -12.184 -1.235 0.21 17.9372 0.0
13.059 -12.217 -1.234 0.27 17.9253 0.0
13.024 -12.261 -1.234 0.22 17.9298 0.0
12.961 -12.278 -1.231 0.25 17.8956 0.0
11.478 -10.939 -1.071 0.58 15.8919 0.0
12.834 -12.351 -1.228 0.21 17.854 0.0
12.782 -12.378 -1.226 0.25 17.8353 0.0
12.733 -12.409 -1.225 0.42 17.8217 0.0
12.661 -12.417 -1.222 0.16 17.7757 0.0
12.615 -12.449 -1.221 0.25 17.7653 0.0
12.567 -12.48 -1.22 0.44 17.753 0.0
12.486 -12.477 -1.215 0.18 17.6933 0.0
14.062 13.983 -1.504 0.3 19.8878 0.0
14.127 13.959 -1.506 0.51 19.9172 0.0
14.177 13.92 -1.507 0.32 19.9255 0.0
14.256 13.911 -1.511 0.47 19.9758 0.0
14.455 14.061 -1.533 0.25 20.224 0.0
14.525 14.04 -1.536 0.5 20.2597 0.0
14.583 14.008 -1.537 0.36 20.2793 0.0
14.65 13.985 -1.54 0.38 20.3119 0.0
14.743 13.985 -1.546 0.33 20.3796 0.0
14.836 13.985 -1.552 0.43 20.4474 0.0
15.005 14.056 -1.566 0.29 20.6197 0.0
15.036 14.041 -1.567 0.32 20.6322 0.0
15.002 13.921 -1.558 0.41 20.5251 0.0
15.083 13.908 -1.563 0.42 20.576 0.0
15.18 13.91 -1.569 0.36 20.649 0.0
15.259 13.895 -1.573 0.39 20.6974 0.0
15.327 13.868 -1.576 0.33 20.7297 0.0
15.475 13.915 -1.588 0.42 20.8716 0.0
15.645 13.935 -1.6 0.42 21.0121 0.0
15.888 14.063 -1.623 0.37 21.2798 0.0
15.946 14.024 -1.625 0.3 21.2976 0.0
16.041 14.019 -1.63 0.38 21.3659 0.0
16.042 13.932 -1.626 0.38 21.3094 0.0
16.204 13.983 -1.639 0.36 21.4658 0.0
16.232 13.919 -1.637 0.42 21.4452 0.0
16.215 13.86 -1.633 0.38 21.3937 0.0
16.328 13.868 -1.641 0.33 21.4853 0.0
16.398 13.839 -1.644 0.37 21.5201 0.0
16.531 13.863 -1.654 0.27 21.6378 0.0
16.642 13.867 -1.661 0.29 21.7258 0.0
18.12 15.006 -1.822 0.27 23.5973 0.0
18.17 14.951 -1.822 0.31 23.6009 0.0
18.208 14.934 -1.823 0.33 23.6195 0.0
18.236 14.862 -1.821 0.31 23.5955 0.0
18.343 14.853 -1.828 0.23 23.6732 0.0
18.397 14.802 -1.829 0.24 23.6832 0.0
18.42 14.725 -1.826 0.49 23.6528 0.0
18.476 14.675 -1.827 0.15 23.6655 0.0
18.559 14.599 -1.829 0.23 23.6836 0.0
18.598 14.536 -1.828 0.43 23.6754 0.0
18.641 14.475 -1.828 0.17 23.6718 0.0
18.685 14.415 -1.828 0.25 23.6699 0.0
18.705 14.337 -1.825 0.25 23.638 0.0
18.75 14.278 -1.825 0.44 23.638 0.0
18.769 14.199 -1.822 0.2 23.6052 0.0
18.831 14.2 -1.827 0.29 23.6555 0.0
18.885 14.148 -1.828 0.35 23.6675 0.0
18.937 14.095 -1.828 0.3 23.6774 0.0
18.974 14.029 -1.828 0.27 23.6679 0.0
19.014 13.967 -1.827 0.27 23.6632 0.0
19.024 13.882 -1.824 0.29 23.621 0.0
19.053 13.812 -1.822 0.23 23.6031 0.0
19.077 13.783 -1.822 0.39 23.6056 0.0
19.058 13.679 -1.816 0.25 23.5291 0.0
19.132 13.641 -1.819 0.24 23.5673 0.0
19.18 13.584 -1.82 0.23 23.5735 0.0
19.229 13.529 -1.82 0.39 23.5818 0.0
19.27 13.467 -1.82 0.17 23.5798 0.0
19.309 13.404 -1.82 0.21 23.5758 0.0
19.38 13.319 -1.821 0.22 23.5859 0.0
19.425 13.26 -1.821 0.41 23.5897 0.0
19.455 13.191 -1.82 0.19 23.5757 0.0
19.506 13.137 -1.821 0.22 23.5877 0.0
19.562 13.085 -1.822 0.38 23.6053 0.0
19.598 13.02 -1.822 0.18 23.5992 0.0
19.651 12.967 -1.823 0.39 23.6142 0.0
19.666 12.932 -1.822 0.18 23.6074 0.0
19.726 12.884 -1.824 0.22 23.6313 0.0
19.795 12.84 -1.827 0.35 23.6653 0.0
19.842 12.782 -1.828 0.19 23.6733 0.0
19.899 12.73 -1.83 0.39 23.6933 0.0
19.944 12.671 -1.83 0.17 23.6995 0.0
19.982 12.607 -1.83 0.21 23.6974 0.0
19.993 12.571 -1.829 0.25 23.6875 0.0
20.033 12.508 -1.829 0.21 23.6879 0.0
20.07 12.444 -1.829 0.36 23.6855 0.0
20.106 12.378 -1.829 0.18 23.6815 0.0
20.145 12.315 -1.829 0.36 23.6818 0.0
20.158 12.236 -1.826 0.19 23.6516 0.0
20.222 12.145 -1.827 0.19 23.6594 0.0
20.258 12.081 -1.827 0.38 23.6575 0.0
20.308 12.024 -1.828 0.2 23.6714 0.0
20.342 11.958 -1.828 0.2 23.6671 0.0
20.378 11.893 -1.827 0.2 23.6653 0.0
20.403 11.822 -1.826 0.34 23.6511 0.0
20.426 11.75 -1.825 0.19 23.635 0.0
20.45 11.721 -1.825 0.33 23.6414 0.0
20.476 11.651 -1.824 0.18 23.6292 0.0
20.515 11.587 -1.824 0.22 23.6316 0.0
20.541 11.517 -1.823 0.19 23.6199 0.0
20.613 11.473 -1.827 0.21 23.6614 0.0
20.646 11.406 -1.827 0.18 23.6578 0.0
20.688 11.345 -1.827 0.2 23.6652 0.0
20.706 11.312 -1.827 0.3 23.6651 0.0
20.736 11.244 -1.827 0.18 23.659 0.0
20.786 11.187 -1.828 0.21 23.6759 0.0
20.814 11.118 -1.828 0.21 23.668 0.0
20.875 11.066 -1.83 0.21 23.6975 0.0
20.931 11.012 -1.832 0.32 23.7219 0.0
20.976 10.952 -1.833 0.17 23.7339 0.0
21.034 10.856 -1.834 0.19 23.7412 0.0
21.082 10.797 -1.835 0.22 23.757 0.0
21.114 10.73 -1.835 0.19 23.755 0.0
21.144 10.662 -1.835 0.23 23.7511 0.0
21.171 10.592 -1.834 0.2 23.7437 0.0
21.218 10.533 -1.835 0.23 23.7595 0.0
21.249 10.465 -1.835 0.2 23.7572 0.0
21.253 10.425 -1.834 0.38 23.7431 0.0
21.284 10.358 -1.834 0.18 23.7415 0.0
21.309 10.287 -1.833 0.38 23.733 0.0
21.325 10.213 -1.832 0.2 23.7153 0.0
21.345 10.139 -1.83 0.25 23.7014 0.0
21.377 10.072 -1.83 0.41 23.7017 0.0
21.394 9.998 -1.829 0.19 23.6856 0.0
21.379 9.95 -1.826 0.24 23.6516 0.0
21.357 9.859 -1.821 0.4 23.5932 0.0
21.318 9.759 -1.815 0.14 23.5157 0.0
20.779 9.433 -1.761 0.19 22.8878 1.0
20.785 9.357 -1.759 0.11 22.8618 1.0
20.867 9.315 -1.763 0.51 22.9196 1.0
20.97 9.283 -1.771 0.16 23.0011 1.0
22.189 9.699 -1.881 0.44 24.2891 0.0
22.295 9.662 -1.888 0.33 24.3718 0.0
22.414 9.631 -1.896 0.37 24.4691 0.0
22.448 9.562 -1.897 0.2 24.4733 0.0
22.168 9.36 -1.868 0.16 24.1354 0.0
21.992 9.204 -1.848 0.35 23.9119 1.0
21.912 9.13 -1.84 0.19 23.8092 1.0
21.884 9.037 -1.834 0.38 23.7474 1.0
21.879 8.955 -1.831 0.2 23.7115 1.0
21.881 8.876 -1.829 0.23 23.6835 1.0
21.889 8.799 -1.827 0.4 23.662 1.0
21.861 8.708 -1.822 0.18 23.602 1.0
21.836 8.619 -1.817 0.19 23.5457 1.0
21.82 8.533 -1.813 0.24 23.4992 1.0
0.0 0.0 0.0 0.0 0.0 0.0
20.758 8.004 -1.712 0.0 22.3134 1.0
20.752 7.926 -1.709 0.12 22.2798 1.0
20.849 7.889 -1.715 0.41 22.3575 0.0
20.997 7.87 -1.727 0.31 22.4899 0.0
21.585 8.014 -1.778 0.18 23.0932 1.0
21.552 7.886 -1.772 0.42 23.0178 1.0
21.502 7.791 -1.765 0.16 22.938 0.0
21.473 7.704 -1.76 0.24 22.881 0.0
21.471 7.627 -1.758 0.41 22.8531 0.0
21.459 7.547 -1.755 0.18 22.815 0.0
21.474 7.477 -1.754 0.24 22.806 0.0
21.474 7.401 -1.752 0.4 22.7811 0.0
21.46 7.358 -1.749 0.18 22.7537 0.0
21.439 7.276 -1.745 0.22 22.7072 0.0
21.432 7.199 -1.743 0.39 22.6759 0.0
21.409 7.116 -1.738 0.17 22.6275 0.0
21.354 7.023 -1.731 0.21 22.5458 0.0
21.328 6.941 -1.727 0.38 22.4954 0.0
21.22 6.795 -1.714 0.38 22.3472 0.0
0.0 0.0 0.0 0.0 0.0 0.0
21.179 6.708 -1.709 0.18 22.2816 0.0
21.158 6.629 -1.705 0.36 22.2376 0.0
21.133 6.548 -1.701 0.17 22.1895 0.0
21.106 6.467 -1.697 0.32 22.1397 0.0
21.099 6.392 -1.694 0.17 22.111 0.0
21.047 6.268 -1.687 0.29 22.0252 0.0
21.023 6.189 -1.683 0.16 21.9796 0.0
21.017 6.116 -1.681 0.11 21.9533 0.0
20.991 6.036 -1.677 0.15 21.9059 0.0
20.985 5.963 -1.674 0.12 21.8799 0.0
20.934 5.878 -1.668 0.16 21.8075 0.0
20.906 5.799 -1.664 0.12 21.7591 0.0
20.875 5.72 -1.66 0.17 21.7081 0.0
20.832 5.673 -1.655 0.13 21.654 0.0
20.801 5.594 -1.651 0.16 21.6032 0.0
20.761 5.514 -1.646 0.2 21.5437 0.0
20.717 5.432 -1.64 0.36 21.48 0.0
20.691 5.356 -1.636 0.19 21.4355 0.0
20.665 5.28 -1.633 0.39 21.3913 0.0
20.628 5.201 -1.628 0.18 21.3358 0.0
20.589 5.157 -1.624 0.22 21.2871 0.0
20.571 5.084 -1.621 0.41 21.2518 0.0
20.534 5.006 -1.616 0.17 21.1971 0.0
20.536 4.939 -1.615 0.21 21.1832 0.0
20.532 4.869 -1.613 0.24 21.163 0.0
20.511 4.796 -1.61 0.19 21.1257 0.0
20.473 4.686 -1.605 0.18 21.0637 0.0
20.455 4.614 -1.602 0.21 21.03 0.0
20.43 4.541 -1.598 0.17 20.9895 0.0
20.398 4.466 -1.594 0.13 20.9419 0.0
20.392 4.398 -1.592 0.17 20.9215 0.0
20.336 4.319 -1.586 0.2 20.85 0.0
20.294 4.244 -1.581 0.31 20.7932 0.0
20.246 4.2 -1.577 0.18 20.7371 0.0
20.201 4.125 -1.571 0.24 20.6776 0.0
20.144 4.047 -1.565 0.32 20.606 0.0
20.115 3.975 -1.562 0.41 20.5634 0.0
20.098 3.907 -1.559 0.35 20.5335 0.0
20.103 3.842 -1.558 0.37 20.5261 0.0
20.105 3.744 -1.557 0.26 20.5098 0.0
0.0 0.0 0.0 0.0 0.0 0.0
20.089 3.676 -1.555 0.29 20.4817 0.0
20.085 3.61 -1.553 0.27 20.4659 0.0
20.102 3.548 -1.554 0.29 20.4718 0.0
20.119 3.486 -1.554 0.3 20.4778 0.0
20.157 3.427 -1.557 0.27 20.5054 0.0
20.165 3.331 -1.556 0.28 20.4974 0.0
20.191 3.27 -1.557 0.27 20.5133 0.0
20.184 3.204 -1.556 0.29 20.4959 0.0
20.202 3.142 -1.557 0.29 20.5041 0.0
20.209 3.078 -1.556 0.27 20.5012 0.0
20.217 3.014 -1.556 0.26 20.4996 0.0
20.222 2.95 -1.556 0.27 20.4952 0.0
20.222 2.885 -1.555 0.26 20.4859 0.0
20.216 2.852 -1.554 0.27 20.4752 0.0
20.227 2.789 -1.554 0.27 20.4774 0.0
20.222 2.723 -1.553 0.27 20.4635 0.0
20.231 2.66 -1.553 0.27 20.4641 0.0
20.229 2.595 -1.552 0.27 20.4537 0.0
20.235 2.531 -1.552 0.29 20.4516 0.0
20.227 2.465 -1.551 0.27 20.4356 0.0
0.0 0.0 0.0 0.0 0.0 0.0
20.23 2.369 -1.55 0.28 20.4271 0.0
20.236 2.305 -1.55 0.27 20.4257 0.0
20.239 2.241 -1.55 0.29 20.4216 0.0
20.272 2.18 -1.552 0.27 20.4479 0.0
20.28 2.117 -1.552 0.27 20.4492 0.0
20.276 2.02 -1.551 0.3 20.4353 0.0
20.292 1.957 -1.552 0.28 20.4451 0.0
20.306 1.894 -1.552 0.27 20.4531 0.0
20.292 1.829 -1.551 0.29 20.4332 0.0
20.308 1.766 -1.551 0.29 20.4436 0.0
20.313 1.702 -1.551 0.29 20.4431 0.0
20.297 1.636 -1.55 0.29 20.4217 0.0
20.301 1.605 -1.55 0.26 20.4233 0.0
20.312 1.541 -1.55 0.28 20.4293 0.0
20.317 1.477 -1.55 0.27 20.4295 0.0
20.31 1.413 -1.549 0.27 20.4179 0.0
20.316 1.349 -1.549 0.27 20.4196 0.0
20.308 1.284 -1.548 0.26 20.4073 0.0
20.304 1.22 -1.548 0.26 20.3994 0.0
20.284 1.123 -1.545 0.25 20.3737 0.0
0.0 0.0 0.0 0.0 0.0 0.0
20.289 1.059 -1.546 0.43 20.3754 0.0
20.279 0.995 -1.544 0.17 20.362 0.0
20.307 0.932 -1.547 0.24 20.3872 0.0
20.31 0.869 -1.547 0.25 20.3874 0.0
20.337 0.806 -1.549 0.41 20.4118 0.0
20.333 0.742 -1.548 0.18 20.4053 0.0
20.364 0.647 -1.551 0.39 20.4332 0.0
20.376 0.583 -1.551 0.17 20.4433 0.0
20.38 0.519 -1.552 0.2 20.4456 0.0
20.399 0.456 -1.553 0.22 20.4631 0.0
20.391 0.391 -1.552 0.18 20.4537 0.0
20.402 0.327 -1.553 0.21 20.4636 0.0
20.39 0.295 -1.552 0.17 20.4511 0.0
20.379 0.231 -1.551 0.14 20.4392 0.0
20.354 0.167 -1.549 0.17 20.4135 0.0
20.347 0.103 -1.548 0.35 20.4061 0.0
20.323 0.039 -1.546 0.2 20.3818 0.0
20.291 -0.025 -1.543 0.39 20.3496 0.0
20.249 -0.121 -1.54 0.24 20.3078 0.0
20.24 -0.184 -1.539 0.41 20.2993 0.0
20.238 -0.248 -1.539 0.19 20.2979 0.0
0.0 0.0 0.0 0.0 0.0 0.0
20.241 -0.311 -1.539 0.25 20.3018 0.0
20.25 -0.375 -1.54 0.43 20.3119 0.0
20.238 -0.439 -1.539 0.17 20.3012 0.0
20.239 -0.502 -1.539 0.27 20.3036 0.0
20.227 -0.565 -1.539 0.24 20.2933 0.0
20.22 -0.661 -1.538 0.17 20.2892 0.0
20.214 -0.724 -1.538 0.24 20.2854 0.0
20.222 -0.788 -1.539 0.41 20.2958 0.0
20.245 -0.852 -1.541 0.18 20.3214 0.0
20.25 -0.916 -1.542 0.21 20.3293 0.0
20.273 -0.981 -1.544 0.23 20.3554 0.0
20.284 -1.014 -1.545 0.19 20.368 0.0
20.284 -1.078 -1.545 0.33 20.3713 0.0
20.293 -1.142 -1.546 0.18 20.3838 0.0
20.271 -1.205 -1.545 0.22 20.3655 0.0
20.271 -1.269 -1.545 0.19 20.3694 0.0
20.253 -1.331 -1.544 0.23 20.3553 0.0
20.203 -1.424 -1.54 0.39 20.3116 0.0
20.157 -1.484 -1.536 0.18 20.2698 0.0
20.112 -1.545 -1.533 0.25 20.2294 0.0
0.0 0.0 0.0 0.0 0.0 0.0
20.101 -1.607 -1.533 0.43 20.2233 0.0
20.11 -1.672 -1.534 0.2 20.2376 0.0
20.146 -1.738 -1.537 0.24 20.2792 0.0
20.321 -1.817 -1.553 0.25 20.4611 0.0
20.305 -1.912 -1.552 0.53 20.4538 0.0
20.108 -1.958 -1.536 0.14 20.2614 0.0
19.42 -1.953 -1.477 0.26 19.5738 0.0
19.374 -2.01 -1.473 0.28 19.5336 0.0
19.379 -2.072 -1.474 0.45 19.5451 0.0
19.575 -2.155 -1.492 0.41 19.7497 0.0
19.649 -2.226 -1.499 0.25 19.8314 0.0
19.864 -2.281 -1.518 0.25 20.0521 0.0
19.906 -2.35 -1.522 0.34 20.1019 0.0
19.815 -2.402 -1.515 0.32 20.0175 0.0
19.734 -2.455 -1.509 0.27 19.9433 0.0
19.788 -2.525 -1.514 0.41 20.0058 0.0
19.604 -2.565 -1.499 0.28 19.8278 0.0
19.643 -2.632 -1.503 0.26 19.8755 0.0
19.761 -2.743 -1.514 0.23 20.0078 0.0
19.831 -2.816 -1.521 0.27 20.0876 0.0
0.0 0.0 0.0 0.0 0.0 0.0
19.791 -2.874 -1.518 0.25 20.0561 0.0
19.787 -2.937 -1.519 0.43 20.0614 0.0
19.459 -2.951 -1.491 0.16 19.7379 0.0
19.181 -3.002 -1.468 0.23 19.4699 0.0
18.518 -2.958 -1.411 0.14 18.8058 0.0
20.214 -3.292 -1.56 0.03 20.5396 0.0
20.174 -3.351 -1.557 0.0 20.5096 0.0
20.191 -3.419 -1.559 0.21 20.5377 0.0
20.208 -3.487 -1.562 0.43 20.566 0.0
20.234 -3.557 -1.565 0.2 20.6038 0.0
20.307 -3.603 -1.572 0.28 20.684 0.0
20.319 -3.671 -1.574 0.3 20.7079 0.0
20.321 -3.737 -1.575 0.31 20.7217 0.0
20.291 -3.797 -1.574 0.34 20.7031 0.0
20.313 -3.867 -1.577 0.31 20.7379 0.0
20.304 -3.932 -1.577 0.32 20.7413 0.0
20.297 -4.03 -1.578 0.29 20.7533 0.0
20.212 -4.079 -1.572 0.28 20.6793 0.0
20.199 -4.143 -1.572 0.34 20.6793 0.0
20.149 -4.198 -1.568 0.23 20.6413 0.0
20.072 -4.248 -1.563 0.22 20.576 0.0
0.0 0.0 0.0 0.0 0.0 0.0
20.021 -4.303 -1.559 0.4 20.5374 0.0
19.853 -4.365 -1.546 0.3 20.3859 0.0
19.843 -4.428 -1.547 0.26 20.3898 0.0
19.776 -4.479 -1.542 0.21 20.3354 0.0
19.309 -4.438 -1.502 0.39 19.8693 0.0
19.379 -4.518 -1.51 0.18 19.9559 0.0
19.095 -4.515 -1.486 0.23 19.6777 0.0
18.786 -4.505 -1.46 0.4 19.3737 0.0
18.389 -4.441 -1.425 0.15 18.9713 0.0
18.164 -4.447 -1.407 0.12 18.7533 0.0
19.71 -4.889 -1.545 0.0 20.366 0.0
19.594 -4.926 -1.536 0.3 20.262 0.0
19.52 -4.973 -1.531 0.38 20.2016 0.0
19.348 -4.994 -1.517 0.25 20.0396 0.0
19.035 -5.009 -1.491 0.27 19.7394 0.0
18.885 -5.033 -1.479 0.43 19.6 0.0
18.813 -5.078 -1.474 0.24 19.5419 0.0
18.718 -5.115 -1.467 0.38 19.4597 0.0
18.661 -5.163 -1.464 0.28 19.4173 0.0
0.0 0.0 0.0 0.0 0.0 0.0
18.409 -5.156 -1.442 0.28 19.1717 0.0
18.375 -5.209 -1.441 0.31 19.1533 0.0
18.303 -5.25 -1.436 0.24 19.0951 0.0
18.462 -5.39 -1.452 0.21 19.2875 0.0
18.592 -5.491 -1.466 0.23 19.4413 0.0
18.657 -5.574 -1.473 0.19 19.5275 0.0
18.748 -5.665 -1.483 0.32 19.6413 0.0
18.708 -5.717 -1.481 0.19 19.618 0.0
18.707 -5.781 -1.482 0.32 19.6359 0.0
18.831 -5.852 -1.494 0.18 19.7759 0.0
18.691 -5.873 -1.483 0.21 19.648 0.0
18.473 -5.869 -1.465 0.19 19.4382 0.0
18.441 -5.922 -1.464 0.23 19.4238 0.0
18.422 -5.98 -1.464 0.2 19.4235 0.0
18.322 -6.011 -1.457 0.36 19.3378 0.0
17.981 -5.994 -1.428 0.38 19.0075 0.0
17.779 -5.989 -1.412 0.2 18.8137 0.0
17.59 -5.987 -1.396 0.37 18.6333 0.0
17.322 -5.958 -1.374 0.16 18.3695 0.0
0.0 0.0 0.0 0.0 0.0 0.0
17.132 -5.953 -1.358 0.32 18.1876 0.0
16.969 -5.956 -1.345 0.12 18.0341 0.0
18.619 -6.631 -1.498 0.0 19.8212 0.0
18.688 -6.722 -1.506 0.29 19.9172 0.0
18.605 -6.758 -1.501 0.32 19.8512 0.0
18.532 -6.797 -1.496 0.35 19.7958 0.0
18.55 -6.87 -1.499 0.2 19.838 0.0
18.569 -6.944 -1.503 0.32 19.8818 0.0
18.586 -7.017 -1.507 0.25 19.9236 0.0
18.54 -7.033 -1.504 0.3 19.8861 0.0
18.503 -7.085 -1.502 0.23 19.8699 0.0
18.488 -7.146 -1.503 0.24 19.8779 0.0
18.435 -7.193 -1.5 0.4 19.8454 0.0
18.383 -7.239 -1.497 0.18 19.8136 0.0
18.36 -7.296 -1.497 0.23 19.8132 0.0
18.306 -7.342 -1.495 0.39 19.78 0.0
18.247 -7.418 -1.492 0.23 19.7536 0.0
18.133 -7.438 -1.484 0.52 19.6553 0.0
18.021 -7.459 -1.476 0.14 19.5594 0.0
17.746 -7.411 -1.452 0.22 19.2861 0.0
17.699 -7.456 -1.45 0.23 19.26 0.0
17.657 -7.504 -1.448 0.43 19.24 0.0
0.0 0.0 0.0 0.0 0.0 0.0
17.35 -7.471 -1.423 0.25 18.9437 0.0
17.191 -7.467 -1.41 0.27 18.7956 0.0
17.031 -7.461 -1.397 0.27 18.646 0.0
16.823 -7.433 -1.38 0.27 18.4436 0.0
16.688 -7.437 -1.37 0.27 18.3214 0.0
16.538 -7.432 -1.358 0.2 18.182 0.0
16.413 -7.438 -1.348 0.12 18.0701 0.0
17.86 -8.126 -1.486 0.0 19.6779 0.0
17.834 -8.182 -1.486 0.52 19.6775 0.0
17.796 -8.232 -1.485 0.34 19.6639 0.0
17.584 -8.201 -1.467 0.21 19.4578 0.0
17.374 -8.17 -1.449 0.33 19.2537 0.0
17.364 -8.232 -1.451 0.31 19.2712 0.0
17.23 -8.235 -1.441 0.29 19.1511 0.0
16.967 -8.208 -1.419 0.32 18.9014 0.0
16.828 -8.207 -1.409 0.3 18.7756 0.0
16.695 -8.207 -1.398 0.34 18.6556 0.0
16.564 -8.207 -1.388 0.34 18.5377 0.0
16.442 -8.211 -1.379 0.35 18.4299 0.0
0.0 0.0 0.0 0.0 0.0 0.0
16.194 -8.184 -1.359 0.38 18.1953 0.0
16.057 -8.178 -1.348 0.3 18.07 0.0
15.942 -8.183 -1.339 0.37 17.9695 0.0
15.847 -8.197 -1.333 0.29 17.8912 0.0
15.784 -8.228 -1.329 0.35 17.8494 0.0
15.769 -8.283 -1.33 0.35 17.8616 0.0
15.87 -8.399 -1.343 0.43 18.0057 0.0
15.652 -8.347 -1.324 0.4 17.7879 0.0
15.517 -8.307 -1.312 0.43 17.6495 0.0
15.463 -8.341 -1.309 0.33 17.6179 0.0
15.416 -8.378 -1.307 0.36 17.5941 0.0
15.456 -8.463 -1.314 0.36 17.6702 0.0
15.438 -8.516 -1.315 0.38 17.68 0.0
15.395 -8.556 -1.313 0.42 17.6617 0.0
15.318 -8.576 -1.308 0.33 17.604 0.0
15.182 -8.594 -1.299 0.48 17.4939 0.0
15.113 -8.618 -1.295 0.34 17.4456 0.0
15.07 -8.657 -1.293 0.49 17.4276 0.0
14.993 -8.675 -1.288 0.26 17.3696 0.0
14.921 -8.696 -1.284 0.48 17.3178 0.0
0.0 0.0 0.0 0.0 0.0 0.0
14.789 -8.713 -1.275 0.43 17.2121 0.0
14.717 -8.733 -1.27 0.3 17.1601 0.0
14.657 -8.76 -1.267 0.52 17.1222 0.0
14.636 -8.81 -1.268 0.26 17.13 0.0
14.489 -8.784 -1.256 0.56 16.9902 0.0
14.47 -8.834 -1.256 0.28 16.9999 0.0
14.416 -8.864 -1.254 0.43 16.9695 0.0
14.338 -8.847 -1.247 0.31 16.8939 0.0
14.302 -8.887 -1.246 0.57 16.8843 0.0
14.245 -8.914 -1.244 0.34 16.8501 0.0
14.227 -8.965 -1.245 0.4 16.8621 0.0
14.177 -8.996 -1.242 0.37 16.8362 0.0
14.167 -9.052 -1.244 0.38 16.8579 0.0
14.057 -9.075 -1.237 0.35 16.7775 0.0
13.985 -9.091 -1.233 0.42 16.7256 0.0
13.91 -9.105 -1.228 0.44 16.6702 0.0
13.871 -9.142 -1.227 0.33 16.6579 0.0
13.776 -9.141 -1.22 0.37 16.5778 0.0
13.707 -9.158 -1.216 0.32 16.5297 0.0
0.0 0.0 0.0 0.0 0.0 0.0
13.677 -9.232 -1.218 0.34 16.5461 0.0
13.671 -9.29 -1.22 0.36 16.5737 0.0
13.653 -9.341 -1.221 0.5 16.5876 0.0
13.583 -9.356 -1.217 0.29 16.5382 0.0
13.506 -9.365 -1.212 0.44 16.4798 0.0
13.453 -9.392 -1.209 0.33 16.4516 0.0
13.331 -9.369 -1.2 0.45 16.3381 0.0
13.27 -9.389 -1.196 0.33 16.2996 0.0
13.352 -9.478 -1.207 0.45 16.4184 0.0
13.286 -9.494 -1.203 0.33 16.3738 0.0
13.255 -9.535 -1.203 0.52 16.3725 0.0
13.149 -9.521 -1.195 0.24 16.278 0.0
13.067 -9.525 -1.189 0.46 16.2138 0.0
13.127 -9.632 -1.199 0.31 16.3258 0.0
13.078 -9.659 -1.197 0.49 16.3022 0.0
12.946 -9.656 -1.187 0.44 16.194 0.0
12.957 -9.728 -1.192 0.38 16.2462 0.0
12.862 -9.721 -1.185 0.38 16.1658 0.0
12.916 -9.825 -1.194 0.36 16.272 0.0
12.879 -9.861 -1.193 0.4 16.2644 0.0
0.0 0.0 0.0 0.0 0.0 0.0
12.725 -9.838 -1.182 0.3 16.1279 0.0
12.728 -9.905 -1.185 0.43 16.1714 0.0
12.793 -10.02 -1.196 0.33 16.2939 0.0
12.747 -10.049 -1.194 0.41 16.2756 0.0
12.709 -10.084 -1.194 0.35 16.2675 0.0
12.648 -10.1 -1.19 0.5 16.2295 0.0
12.61 -10.135 -1.19 0.34 16.2218 0.0
12.627 -10.181 -1.193 0.36 16.264 0.0
12.564 -10.196 -1.19 0.33 16.2243 0.0
12.451 -10.17 -1.181 0.5 16.1199 0.0
12.538 -10.306 -1.194 0.3 16.2739 0.0
12.501 -10.341 -1.194 0.48 16.2677 0.0
12.404 -10.327 -1.186 0.37 16.1837 0.0
12.373 -10.401 -1.189 0.35 16.2076 0.0
12.362 -10.458 -1.191 0.5 16.236 0.0
12.349 -10.513 -1.193 0.32 16.2617 0.0
12.211 -10.463 -1.181 0.41 16.1238 0.0
12.201 -10.521 -1.184 0.36 16.1542 0.0
12.187 -10.576 -1.186 0.5 16.1797 0.0
12.082 -10.551 -1.178 0.34 16.0837 0.0
12.157 -10.65 -1.188 0.36 16.2058 0.0
12.1 -10.667 -1.186 0.47 16.1741 0.0
12.05 -10.691 -1.184 0.32 16.1525 0.0
12.068 -10.775 -1.19 0.47 16.222 0.0
11.866 -10.662 -1.17 0.24 15.9953 0.0
11.948 -10.804 -1.184 0.47 16.1519 0.0
11.95 -10.873 -1.188 0.45 16.1999 0.0
11.876 -10.875 -1.183 0.29 16.1463 0.0
11.976 -11.001 -1.197 0.43 16.3058 0.0
11.902 -11.002 -1.192 0.37 16.2518 0.0
11.775 -10.954 -1.182 0.34 16.1257 0.0
11.742 -10.992 -1.182 0.44 16.1275 0.0
11.635 -10.961 -1.173 0.42 16.0279 0.0
11.654 -11.048 -1.179 0.33 16.1017 0.0
11.458 -10.965 -1.162 0.36 15.9018 0.0
11.422 -11.0 -1.162 0.29 15.9001 0.0
11.437 -11.084 -1.168 0.38 15.9695 0.0
11.908 -11.612 -1.229 0.16 16.6778 0.0
11.571 -11.355 -1.193 0.34 16.2557 0.0
11.371 -11.229 -1.173 0.36 16.0239 0.0
11.985 -11.908 -1.251 0.25 16.9412 0.0
11.127 -11.093 -1.15 0.5 15.754 0.0
14.012 13.96 -1.617 0.5 19.8452 0.0
14.052 13.912 -1.616 0.26 19.8397 0.0
14.082 13.898 -1.617 0.3 19.8512 0.0
14.242 13.968 -1.632 0.2 20.0151 0.0
14.329 13.965 -1.638 0.38 20.0755 0.0
14.324 13.873 -1.632 0.33 20.0075 0.0
14.419 13.877 -1.638 0.31 20.0789 0.0
14.493 13.861 -1.642 0.37 20.1214 0.0
14.69 13.96 -1.662 0.28 20.3332 0.0
14.856 13.985 -1.674 0.34 20.4715 0.0
14.869 13.91 -1.67 0.43 20.4295 0.0
14.926 13.875 -1.672 0.25 20.4474 0.0
15.031 13.885 -1.68 0.27 20.5316 0.0
15.34 14.081 -1.713 0.28 20.8932 0.0
15.18 13.846 -1.687 0.43 20.6153 0.0
15.267 13.839 -1.693 0.25 20.6752 0.0
15.366 13.884 -1.702 0.36 20.7792 0.0
15.497 13.914 -1.713 0.3 20.8971 0.0
15.666 13.977 -1.729 0.42 21.0658 0.0
15.716 13.933 -1.729 0.25 21.0739 0.0
15.795 13.915 -1.734 0.28 21.1215 0.0
15.878 13.899 -1.738 0.33 21.1734 0.0
15.956 13.879 -1.743 0.41 21.2193 0.0
16.014 13.885 -1.747 0.25 21.2672 0.0
16.128 13.896 -1.756 0.35 21.3611 0.0
16.273 13.932 -1.768 0.33 21.495 0.0
16.361 13.918 -1.773 0.31 21.5531 0.0
16.447 13.902 -1.778 0.21 21.6086 0.0
16.52 13.875 -1.782 0.3 21.6472 0.0
16.564 13.823 -1.782 0.27 21.6476 0.0
17.106 14.139 -1.839 0.23 22.269 0.0
17.185 14.113 -1.843 0.21 22.3136 0.0
17.22 14.051 -1.842 0.24 22.3014 0.0
17.262 13.996 -1.842 0.21 22.2993 0.0
17.287 13.927 -1.839 0.35 22.2752 0.0
17.347 13.885 -1.841 0.16 22.2958 0.0
0.0 0.0 0.0 0.0 0.0 0.0
17.382 13.779 -1.838 0.16 22.257 0.0
17.414 13.716 -1.836 0.11 22.2429 0.0
17.461 13.664 -1.837 0.27 22.2478 0.0
17.496 13.603 -1.836 0.27 22.2379 0.0
17.543 13.551 -1.836 0.16 22.2431 0.0
17.59 13.5 -1.837 0.11 22.2493 0.0
17.636 13.447 -1.837 0.26 22.2536 0.0
17.66 13.421 -1.838 0.26 22.2571 0.0
17.713 13.374 -1.839 0.25 22.271 0.0
17.75 13.315 -1.838 0.25 22.265 0.0
17.8 13.265 -1.839 0.24 22.2751 0.0
17.846 13.213 -1.84 0.23 22.2811 0.0
17.889 13.158 -1.84 0.16 22.2831 0.0
17.956 13.077 -1.841 0.17 22.2894 0.0
17.992 13.017 -1.84 0.17 22.2832 0.0
18.044 12.968 -1.841 0.16 22.2967 0.0
18.103 12.924 -1.843 0.1 22.3192 0.0
18.163 12.881 -1.846 0.15 22.3433 0.0
18.213 12.831 -1.847 0.09 22.3553 0.0
18.26 12.778 -1.847 0.14 22.3633 0.0
18.286 12.754 -1.848 0.09 22.3709 0.0
18.33 12.699 -1.848 0.09 22.3756 0.0
18.368 12.64 -1.848 0.14 22.3734 0.0
18.393 12.572 -1.847 0.09 22.3555 0.0
18.445 12.523 -1.848 0.14 22.3709 0.0
18.458 12.447 -1.845 0.09 22.339 0.0
18.499 12.391 -1.845 0.15 22.3418 0.0
18.515 12.359 -1.845 0.09 22.3373 0.0
18.55 12.299 -1.845 0.15 22.3332 0.0
18.579 12.234 -1.844 0.09 22.3215 0.0
18.634 12.186 -1.845 0.16 22.3412 0.0
18.672 12.128 -1.845 0.1 22.3414 0.0
18.715 12.072 -1.846 0.15 22.3471 0.0
18.744 12.008 -1.845 0.1 22.3368 0.0
18.784 11.909 -1.843 0.09 22.3172 0.0
18.83 11.855 -1.844 0.14 22.3273 0.0
18.853 11.788 -1.843 0.09 22.3112 0.0
18.885 11.725 -1.842 0.09 22.305 0.0
18.913 11.661 -1.841 0.09 22.2951 0.0
18.959 11.606 -1.842 0.09 22.3055 0.0
18.991 11.545 -1.842 0.09 22.3011 0.0
19.025 11.524 -1.843 0.09 22.3193 0.0
19.066 11.467 -1.844 0.09 22.325 0.0
19.114 11.414 -1.845 0.14 22.3389 0.0
19.15 11.354 -1.845 0.09 22.3392 0.0
19.184 11.293 -1.845 0.14 22.3375 0.0
19.223 11.235 -1.845 0.09 22.3417 0.0
19.253 11.171 -1.845 0.09 22.3355 0.0
19.277 11.145 -1.846 0.13 22.3433 0.0
19.303 11.079 -1.845 0.0 22.3328 0.0
19.348 11.025 -1.846 0.0 22.3451 0.0
19.385 10.965 -1.846 0.0 22.3476 0.0
19.428 10.909 -1.847 0.0 22.3577 0.0
19.472 10.853 -1.848 0.0 22.3688 0.0
19.525 10.803 -1.85 0.0 22.3909 0.0
19.59 10.718 -1.851 0.15 22.4069 0.0
19.62 10.655 -1.851 0.1 22.4031 0.0
19.664 10.599 -1.852 0.14 22.4152 0.0
19.71 10.544 -1.853 0.09 22.4297 0.0
19.741 10.481 -1.853 0.15 22.4275 0.0
19.77 10.417 -1.853 0.1 22.4232 0.0
19.772 10.378 -1.851 0.15 22.4067 0.0
19.789 10.308 -1.85 0.1 22.3893 0.0
19.823 10.246 -1.85 0.16 22.3909 0.0
19.848 10.181 -1.849 0.16 22.3834 0.0
19.86 10.108 -1.847 0.17 22.3607 0.0
19.874 10.037 -1.845 0.17 22.341 0.0
19.868 9.956 -1.842 0.16 22.2992 0.0
19.843 9.904 -1.837 0.15 22.2533 0.0
19.849 9.829 -1.835 0.12 22.2252 0.0
19.939 9.796 -1.841 0.19 22.2916 0.0
20.057 9.776 -1.85 0.2 22.3892 0.0
20.194 9.764 -1.861 0.35 22.5077 0.0
20.327 9.749 -1.871 0.25 22.6215 0.0
20.409 9.71 -1.876 0.33 22.6789 0.0
20.514 9.681 -1.884 0.19 22.7617 0.0
20.767 9.68 -1.905 0.16 22.9913 0.0
20.752 9.594 -1.9 0.17 22.9412 0.0
20.536 9.416 -1.875 0.15 22.6694 0.0
20.347 9.253 -1.853 0.09 22.4288 1.0
20.285 9.148 -1.844 0.09 22.3286 0.0
20.278 9.068 -1.841 0.16 22.2894 0.0
20.239 9.013 -1.835 0.1 22.231 0.0
20.255 8.944 -1.834 0.16 22.2176 0.0
20.237 8.86 -1.829 0.18 22.1671 0.0
20.259 8.794 -1.829 0.18 22.1609 0.0
20.256 8.717 -1.826 0.17 22.1275 0.0
20.252 8.64 -1.823 0.17 22.0934 0.0
20.237 8.559 -1.818 0.16 22.0476 0.0
20.208 8.509 -1.814 0.17 22.0013 0.0
20.192 8.428 -1.81 0.16 21.955 0.0
20.152 8.337 -1.803 0.16 21.8829 0.0
20.14 8.258 -1.8 0.16 21.8416 0.0
20.121 8.177 -1.795 0.16 21.7931 0.0
20.106 8.097 -1.791 0.17 21.749 0.0
20.061 7.97 -1.783 0.16 21.6597 0.0
20.056 7.895 -1.78 0.16 21.6274 0.0
20.01 7.804 -1.773 0.16 21.551 0.0
20.005 7.73 -1.77 0.16 21.5194 0.0
20.003 7.657 -1.768 0.1 21.4913 0.0
20.012 7.589 -1.766 0.25 21.4754 0.0
20.019 7.52 -1.764 0.26 21.4575 0.0
20.005 7.478 -1.762 0.27 21.4295 0.0
20.0 7.405 -1.759 0.25 21.3993 0.0
19.993 7.331 -1.756 0.23 21.367 0.0
19.997 7.262 -1.754 0.16 21.347 0.0
19.979 7.184 -1.75 0.16 21.3034 0.0
19.966 7.109 -1.747 0.16 21.2657 0.0
19.932 7.026 -1.741 0.16 21.2057 0.0
19.899 6.944 -1.736 0.16 21.1472 0.0
19.85 6.892 -1.73 0.17 21.0835 0.0
19.818 6.812 -1.725 0.16 21.0269 0.0
19.802 6.737 -1.721 0.15 20.9873 0.0
19.776 6.659 -1.717 0.1 20.9375 0.0
19.761 6.585 -1.713 0.14 20.8996 0.0
19.749 6.512 -1.71 0.08 20.8651 0.0
19.691 6.39 -1.702 0.08 20.7717 0.0
19.68 6.318 -1.699 0.0 20.739 0.0
19.689 6.253 -1.698 0.0 20.7278 0.0
19.681 6.183 -1.695 0.0 20.6989 0.0
19.67 6.112 -1.692 0.0 20.6671 0.0
19.661 6.041 -1.689 0.0 20.6374 0.0
19.63 5.964 -1.685 0.0 20.5851 0.0
19.611 5.925 -1.682 0.0 20.5554 0.0
19.589 5.851 -1.678 0.0 20.5129 0.0
19.547 5.772 -1.672 0.0 20.4499 0.0
19.522 5.698 -1.668 0.0 20.4049 0.0
19.487 5.621 -1.663 0.0 20.3496 0.0
19.443 5.543 -1.657 0.0 20.2855 0.0
19.397 5.464 -1.651 0.0 20.2194 0.0
19.377 5.425 -1.648 0.0 20.1895 0.0
19.355 5.354 -1.645 0.0 20.1491 0.0
19.339 5.284 -1.642 0.1 20.115 0.0
19.323 5.215 -1.639 0.16 20.0814 0.0
19.307 5.145 -1.635 0.1 20.0476 0.0
19.296 5.077 -1.633 0.15 20.0194 0.0
19.256 4.97 -1.627 0.14 19.9535 0.0
19.242 4.902 -1.624 0.09 19.9229 0.0
19.227 4.834 -1.621 0.13 19.8915 0.0
19.201 4.764 -1.617 0.0 19.8492 0.0
19.176 4.693 -1.613 0.0 19.8077 0.0
19.2 4.635 -1.614 0.0 19.8174 0.0
19.191 4.57 -1.612 0.0 19.7934 0.0
19.184 4.504 -1.61 0.0 19.7713 0.0
19.148 4.464 -1.606 0.0 19.7269 0.0
19.102 4.39 -1.6 0.0 19.6652 0.0
19.104 4.328 -1.599 0.0 19.6533 0.0
19.057 4.254 -1.594 0.0 19.591 0.0
18.993 4.177 -1.586 0.0 19.5115 0.0
18.932 4.102 -1.579 0.0 19.4355 0.0
18.908 4.003 -1.575 0.27 19.3912 0.0
0.0 0.0 0.0 0.0 0.0 0.0
18.891 3.938 -1.573 0.32 19.3611 0.0
18.888 3.875 -1.571 0.25 19.3453 0.0
18.902 3.816 -1.571 0.15 19.3472 0.0
18.869 3.748 -1.567 0.18 19.3014 0.0
18.863 3.685 -1.565 0.18 19.2832 0.0
18.872 3.595 -1.565 0.19 19.275 0.0
18.895 3.538 -1.566 0.29 19.2871 0.0
18.92 3.481 -1.567 0.16 19.3013 0.0
18.921 3.42 -1.566 0.12 19.2913 0.0
18.946 3.363 -1.568 0.18 19.3059 0.0
18.956 3.303 -1.568 0.12 19.3054 0.0
18.978 3.246 -1.569 0.17 19.3174 0.0
18.969 3.214 -1.567 0.11 19.3031 0.0
18.987 3.155 -1.568 0.27 19.3111 0.0
18.987 3.094 -1.567 0.25 19.3012 0.0
18.999 3.035 -1.567 0.25 19.3036 0.0
19.002 2.974 -1.567 0.25 19.2971 0.0
19.016 2.915 -1.567 0.26 19.3018 0.0
19.027 2.825 -1.567 0.25 19.2993 0.0
19.022 2.763 -1.566 0.25 19.2853 0.0
0.0 0.0 0.0 0.0 0.0 0.0
19.033 2.704 -1.566 0.27 19.2878 0.0
