9.515 -8.057 -1.482 0.29 12.5557 0.0
9.467 -8.068 -1.478 0.32 12.526 0.0
9.408 -8.069 -1.473 0.32 12.4815 0.0
9.31 -8.062 -1.462 0.32 12.402 0.0
9.246 -8.057 -1.455 0.36 12.3499 0.0
9.176 -8.047 -1.447 0.29 12.2901 0.0
9.129 -8.058 -1.443 0.39 12.2618 0.0
9.067 -8.054 -1.436 0.28 12.2123 0.0
9.015 -8.058 -1.432 0.36 12.1759 0.0
8.959 -8.059 -1.426 0.33 12.1344 0.0
8.906 -8.037 -1.419 0.32 12.0799 0.0
8.85 -8.037 -1.413 0.35 12.038 0.0
8.801 -8.043 -1.409 0.36 12.0055 0.0
8.76 -8.056 -1.406 0.38 11.9839 0.0
8.718 -8.069 -1.403 0.37 11.9616 0.0
8.69 -8.094 -1.402 0.45 11.958 0.0
8.686 -8.141 -1.406 0.36 11.9875 0.0
8.75 -8.279 -1.425 0.35 12.1299 0.0
8.673 -8.257 -1.416 0.43 12.0584 0.0
0.0 0.0 0.0 0.0 0.0 0.0
8.655 -8.292 -1.417 0.33 12.0696 0.0
8.6 -8.292 -1.412 0.43 12.0296 0.0
8.626 -8.369 -1.422 0.28 12.1025 0.0
8.546 -8.37 -1.414 0.37 12.0453 0.0
8.5 -8.378 -1.411 0.35 12.018 0.0
8.474 -8.404 -1.411 0.41 12.0178 0.0
8.449 -8.432 -1.411 0.34 12.0198 0.0
10.549 10.489 -1.908 0.39 14.998 0.0
10.581 10.455 -1.908 0.17 14.9968 0.0
10.614 10.422 -1.908 0.22 14.9972 0.0
0.0 0.0 0.0 0.0 0.0 0.0
10.655 10.396 -1.909 0.39 15.0083 0.0
10.693 10.368 -1.91 0.17 15.0161 0.0
10.71 10.288 -1.904 0.35 14.9724 0.0
10.724 10.236 -1.901 0.18 14.9464 0.0
10.747 10.194 -1.899 0.39 14.9339 0.0
10.771 10.153 -1.897 0.18 14.923 0.0
10.827 10.142 -1.902 0.29 14.9567 0.0
10.878 10.125 -1.906 0.48 14.9826 0.0
10.937 10.116 -1.911 0.2 15.0201 0.0
10.972 10.117 -1.915 0.28 15.0468 0.0
11.058 10.131 -1.925 0.33 15.1203 0.0
11.115 10.119 -1.93 0.32 15.1546 0.0
11.167 10.103 -1.934 0.43 15.1826 0.0
11.199 10.068 -1.934 0.31 15.183 0.0
11.242 10.043 -1.936 0.38 15.1984 0.0
11.321 10.05 -1.945 0.27 15.2627 0.0
11.362 9.991 -1.944 0.27 15.2543 0.0
11.356 9.923 -1.937 0.26 15.2045 0.0
11.307 9.817 -1.922 0.2 15.0969 0.0
11.297 9.747 -1.914 0.38 15.0429 0.0
11.233 9.63 -1.896 0.3 14.9168 0.0
0.0 0.0 0.0 0.0 0.0 0.0
11.297 9.624 -1.903 0.21 14.9621 0.0
11.305 9.539 -1.896 0.39 14.9128 0.0
11.32 9.491 -1.893 0.17 14.8931 0.0
11.328 9.437 -1.889 0.21 14.8643 0.0
11.345 9.392 -1.887 0.24 14.8486 0.0
11.358 9.342 -1.884 0.19 14.8265 0.0
11.37 9.293 -1.881 0.36 14.8046 0.0
11.378 9.239 -1.877 0.16 14.7764 0.0
11.385 9.186 -1.873 0.37 14.7482 0.0
11.386 9.157 -1.87 0.18 14.7305 0.0
11.408 9.117 -1.869 0.37 14.7226 0.0
11.423 9.07 -1.867 0.19 14.7049 0.0
11.436 9.021 -1.864 0.38 14.6845 0.0
11.448 8.973 -1.861 0.18 14.6641 0.0
11.456 8.893 -1.855 0.14 14.6208 0.0
11.475 8.849 -1.853 0.21 14.6087 0.0
11.487 8.801 -1.85 0.36 14.5887 0.0
11.503 8.757 -1.848 0.18 14.5746 0.0
11.518 8.711 -1.846 0.36 14.5586 0.0
11.518 8.655 -1.841 0.18 14.5246 0.0
11.539 8.614 -1.84 0.36 14.5167 0.0
0.0 0.0 0.0 0.0 0.0 0.0
11.546 8.534 -1.834 0.23 14.4742 0.0
11.571 8.497 -1.834 0.4 14.4724 0.0
11.579 8.447 -1.831 0.18 14.4491 0.0
11.587 8.397 -1.828 0.23 14.426 0.0
11.604 8.354 -1.826 0.38 14.4145 0.0
11.629 8.316 -1.826 0.18 14.4126 0.0
11.626 8.259 -1.821 0.36 14.3768 0.0
11.624 8.231 -1.818 0.2 14.3587 0.0
11.635 8.184 -1.816 0.21 14.3405 0.0
11.645 8.136 -1.813 0.24 14.3209 0.0
11.67 8.099 -1.813 0.21 14.3203 0.0
11.673 8.047 -1.809 0.39 14.2929 0.0
11.67 7.991 -1.804 0.17 14.2583 0.0
11.704 7.934 -1.804 0.39 14.2543 0.0
11.713 7.886 -1.801 0.17 14.2347 0.0
11.736 7.848 -1.8 0.21 14.2325 0.0
11.757 7.809 -1.8 0.25 14.2284 0.0
11.785 7.774 -1.8 0.21 14.2324 0.0
11.788 7.723 -1.797 0.36 14.2067 0.0
11.807 7.683 -1.796 0.18 14.2007 0.0
11.812 7.66 -1.795 0.33 14.1923 0.0
11.833 7.621 -1.794 0.19 14.1887 0.0
11.839 7.572 -1.791 0.36 14.167 0.0
11.861 7.534 -1.791 0.18 14.1652 0.0
11.862 7.483 -1.787 0.34 14.1384 0.0
11.877 7.44 -1.786 0.19 14.1282 0.0
11.886 7.393 -1.783 0.36 14.1107 0.0
11.899 7.35 -1.782 0.17 14.0991 0.0
11.887 7.317 -1.778 0.32 14.0713 0.0
11.887 7.266 -1.774 0.18 14.0443 0.0
11.895 7.219 -1.772 0.22 14.0266 0.0
11.884 7.161 -1.766 0.18 13.9867 0.0
11.901 7.121 -1.765 0.22 13.9806 0.0
11.907 7.049 -1.761 0.21 13.9487 0.0
11.91 7.0 -1.758 0.19 13.9262 0.0
11.919 6.955 -1.755 0.19 13.911 0.0
11.932 6.912 -1.754 0.27 13.9005 0.0
11.933 6.863 -1.751 0.27 13.8767 0.0
11.944 6.82 -1.749 0.27 13.8647 0.0
11.957 6.777 -1.747 0.29 13.8546 0.0
11.95 6.724 -1.743 0.16 13.8222 0.0
11.954 6.702 -1.742 0.11 13.8148 0.0
11.973 6.663 -1.742 0.27 13.8124 0.0
11.979 6.617 -1.739 0.25 13.7951 0.0
11.987 6.572 -1.737 0.25 13.7803 0.0
11.994 6.527 -1.735 0.24 13.7647 0.0
12.009 6.487 -1.734 0.23 13.7588 0.0
12.015 6.442 -1.732 0.15 13.7426 0.0
12.01 6.414 -1.729 0.09 13.7248 0.0
12.026 6.375 -1.729 0.14 13.7206 0.0
12.023 6.325 -1.725 0.09 13.6943 0.0
12.036 6.283 -1.724 0.09 13.6863 0.0
12.044 6.239 -1.722 0.14 13.6729 0.0
12.04 6.19 -1.718 0.09 13.6466 0.0
12.057 6.127 -1.716 0.15 13.6329 0.0
12.065 6.083 -1.715 0.1 13.6201 0.0
12.061 6.034 -1.711 0.23 13.5943 0.0
12.063 5.987 -1.708 0.16 13.5749 0.0
12.06 5.939 -1.705 0.1 13.5507 0.0
12.077 5.9 -1.705 0.15 13.5488 0.0
12.061 5.846 -1.699 0.09 13.5104 0.0
12.06 5.822 -1.698 0.17 13.499 0.0
12.058 5.774 -1.694 0.17 13.4761 0.0
12.06 5.729 -1.692 0.17 13.4584 0.0
12.068 5.686 -1.69 0.17 13.4471 0.0
12.066 5.639 -1.687 0.2 13.4251 0.0
12.072 5.596 -1.685 0.31 13.4122 0.0
12.07 5.549 -1.682 0.19 13.3905 0.0
12.079 5.507 -1.681 0.2 13.3811 0.0
12.073 5.481 -1.679 0.34 13.3648 0.0
12.088 5.443 -1.678 0.18 13.3627 0.0
12.094 5.4 -1.677 0.2 13.3505 0.0
12.099 5.356 -1.675 0.32 13.3371 0.0
12.104 5.313 -1.673 0.17 13.3242 0.0
12.106 5.246 -1.669 0.29 13.2989 0.0
12.109 5.203 -1.668 0.16 13.2846 0.0
12.104 5.155 -1.664 0.12 13.2608 0.0
12.133 5.123 -1.666 0.15 13.2752 0.0
12.119 5.072 -1.662 0.11 13.2423 0.0
12.135 5.034 -1.662 0.25 13.2424 0.0
12.127 4.986 -1.658 0.23 13.2164 0.0
12.134 4.944 -1.657 0.16 13.2069 0.0
12.136 4.923 -1.656 0.16 13.2008 0.0
12.135 4.878 -1.653 0.1 13.1828 0.0
12.152 4.841 -1.654 0.15 13.1849 0.0
12.141 4.793 -1.65 0.09 13.1567 0.0
12.151 4.752 -1.649 0.14 13.151 0.0
12.14 4.704 -1.645 0.09 13.123 0.0
12.143 4.662 -1.643 0.1 13.1105 0.0
12.151 4.643 -1.643 0.14 13.1112 0.0
12.128 4.59 -1.638 0.1 13.0706 0.0
12.144 4.553 -1.638 0.16 13.0725 0.0
12.125 4.503 -1.633 0.1 13.0368 0.0
12.13 4.461 -1.631 0.16 13.0268 0.0
12.116 4.413 -1.627 0.16 12.9969 0.0
12.084 4.337 -1.619 0.22 12.9404 0.0
12.09 4.296 -1.618 0.35 12.9322 0.0
12.087 4.253 -1.616 0.3 12.9149 0.0
12.089 4.211 -1.614 0.31 12.9028 0.0
12.108 4.175 -1.615 0.16 12.909 0.0
12.097 4.128 -1.611 0.51 12.8831 0.0
12.128 4.097 -1.614 0.13 12.9027 0.0
12.112 4.07 -1.611 0.16 12.8787 0.0
12.104 4.025 -1.608 0.22 12.8566 0.0
12.102 3.982 -1.605 0.2 12.841 0.0
12.107 3.942 -1.604 0.22 12.8332 0.0
12.115 3.902 -1.604 0.2 12.8285 0.0
12.127 3.864 -1.604 0.23 12.8284 0.0
12.136 3.825 -1.603 0.2 12.8251 0.0
0.0 0.0 0.0 0.0 0.0 0.0
12.165 3.771 -1.605 0.21 12.8368 0.0
12.169 3.731 -1.604 0.34 12.8288 0.0
12.202 3.699 -1.607 0.2 12.8512 0.0
12.2 3.656 -1.605 0.33 12.8368 0.0
12.223 3.621 -1.606 0.2 12.8488 0.0
12.223 3.58 -1.605 0.34 12.8372 0.0
12.239 3.522 -1.605 0.32 12.8364 0.0
12.269 3.489 -1.608 0.2 12.8564 0.0
12.267 3.447 -1.606 0.36 12.8429 0.0
12.278 3.408 -1.606 0.17 12.843 0.0
12.29 3.37 -1.606 0.31 12.8445 0.0
12.297 3.33 -1.605 0.19 12.8406 0.0
12.313 3.293 -1.606 0.22 12.8465 0.0
12.311 3.272 -1.605 0.2 12.8391 0.0
12.332 3.236 -1.607 0.21 12.8504 0.0
12.333 3.195 -1.605 0.18 12.8408 0.0
12.351 3.158 -1.606 0.22 12.8491 0.0
12.345 3.115 -1.604 0.2 12.8326 0.0
12.359 3.078 -1.605 0.21 12.8373 0.0
12.362 3.037 -1.604 0.2 12.8302 0.0
0.0 0.0 0.0 0.0 0.0 0.0
12.392 2.983 -1.606 0.31 12.8468 0.0
12.399 2.943 -1.606 0.19 12.8443 0.0
12.403 2.903 -1.605 0.34 12.8389 0.0
12.418 2.865 -1.606 0.19 12.845 0.0
12.415 2.824 -1.604 0.34 12.8328 0.0
12.428 2.765 -1.604 0.32 12.8325 0.0
12.445 2.728 -1.605 0.2 12.8412 0.0
12.438 2.685 -1.603 0.33 12.8251 0.0
12.452 2.648 -1.604 0.18 12.8311 0.0
12.45 2.606 -1.602 0.24 12.8203 0.0
12.46 2.568 -1.603 0.21 12.8225 0.0
12.464 2.528 -1.602 0.35 12.8183 0.0
12.459 2.506 -1.601 0.19 12.809 0.0
12.478 2.469 -1.602 0.35 12.8204 0.0
12.488 2.431 -1.603 0.18 12.823 0.0
12.486 2.389 -1.601 0.35 12.8129 0.0
12.503 2.352 -1.603 0.18 12.8229 0.0
12.506 2.312 -1.602 0.38 12.8184 0.0
12.508 2.272 -1.601 0.19 12.8131 0.0
12.513 2.232 -1.601 0.37 12.8109 0.0
0.0 0.0 0.0 0.0 0.0 0.0
12.531 2.174 -1.602 0.32 12.8187 0.0
12.548 2.137 -1.604 0.18 12.8293 0.0
12.56 2.098 -1.604 0.23 12.8346 0.0
12.551 2.056 -1.602 0.2 12.8188 0.0
12.555 2.016 -1.602 0.21 12.8163 0.0
12.556 1.976 -1.601 0.19 12.811 0.0
12.563 1.917 -1.601 0.2 12.8089 0.0
12.585 1.879 -1.603 0.21 12.8251 0.0
12.587 1.839 -1.602 0.18 12.8211 0.0
12.598 1.801 -1.603 0.21 12.8266 0.0
12.59 1.759 -1.601 0.18 12.8127 0.0
12.609 1.721 -1.603 0.21 12.8265 0.0
12.602 1.7 -1.602 0.19 12.8167 0.0
12.619 1.662 -1.604 0.22 12.8286 0.0
12.611 1.621 -1.602 0.18 12.8153 0.0
12.621 1.582 -1.602 0.13 12.8202 0.0
12.646 1.545 -1.605 0.18 12.8407 0.0
12.641 1.504 -1.604 0.2 12.8308 0.0
12.628 1.442 -1.601 0.18 12.8105 0.0
12.629 1.402 -1.601 0.12 12.807 0.0
12.629 1.362 -1.6 0.18 12.8026 0.0
0.0 0.0 0.0 0.0 0.0 0.0
12.649 1.324 -1.602 0.2 12.8186 0.0
12.639 1.283 -1.6 0.32 12.8043 0.0
12.657 1.244 -1.602 0.18 12.8185 0.0
12.622 1.201 -1.597 0.24 12.7792 0.0
12.653 1.144 -1.6 0.29 12.805 0.0
12.656 1.104 -1.6 0.3 12.8044 0.0
12.681 1.066 -1.603 0.14 12.8263 0.0
12.683 1.026 -1.603 0.18 12.825 0.0
12.7 0.987 -1.605 0.17 12.839 0.0
12.697 0.947 -1.604 0.18 12.8329 0.0
12.706 0.907 -1.605 0.16 12.839 0.0
12.691 0.886 -1.603 0.12 12.8225 0.0
12.712 0.847 -1.605 0.15 12.8409 0.0
12.714 0.807 -1.605 0.11 12.8403 0.0
12.731 0.768 -1.607 0.22 12.855 0.0
12.725 0.728 -1.606 0.15 12.8466 0.0
12.729 0.688 -1.606 0.09 12.8483 0.0
12.737 0.648 -1.607 0.14 12.8543 0.0
12.736 0.588 -1.607 0.08 12.8504 0.0
12.74 0.548 -1.607 0.09 12.8526 0.0
0.0 0.0 0.0 0.0 0.0 0.0
12.742 0.508 -1.607 0.1 12.853 0.0
12.737 0.468 -1.606 0.15 12.8464 0.0
12.735 0.428 -1.606 0.1 12.843 0.0
12.709 0.367 -1.602 0.1 12.8148 0.0
12.708 0.327 -1.601 0.16 12.8126 0.0
12.697 0.287 -1.6 0.18 12.8006 0.0
12.69 0.247 -1.599 0.16 12.7927 0.0
12.693 0.207 -1.599 0.18 12.795 0.0
12.685 0.167 -1.598 0.18 12.7863 0.0
12.682 0.127 -1.597 0.3 12.7828 0.0
12.684 0.087 -1.597 0.17 12.7844 0.0
12.686 0.067 -1.598 0.13 12.7864 0.0
12.708 0.028 -1.601 0.18 12.8085 0.0
12.704 -0.012 -1.6 0.22 12.8044 0.0
12.698 -0.052 -1.599 0.19 12.7984 0.0
12.696 -0.092 -1.599 0.21 12.7966 0.0
12.7 -0.132 -1.6 0.31 12.8011 0.0
12.701 -0.192 -1.6 0.2 12.8028 0.0
12.696 -0.232 -1.599 0.3 12.7984 0.0
12.696 -0.272 -1.599 0.18 12.7992 0.0
0.0 0.0 0.0 0.0 0.0 0.0
12.703 -0.312 -1.601 0.19 12.8073 0.0
12.698 -0.352 -1.6 0.29 12.8032 0.0
12.688 -0.391 -1.599 0.18 12.7943 0.0
12.685 -0.431 -1.599 0.21 12.7926 0.0
12.691 -0.491 -1.6 0.19 12.8009 0.0
12.691 -0.531 -1.6 0.18 12.8025 0.0
12.684 -0.571 -1.599 0.26 12.7971 0.0
12.684 -0.611 -1.599 0.29 12.799 0.0
12.686 -0.651 -1.6 0.16 12.8031 0.0
12.68 -0.69 -1.599 0.11 12.799 0.0
12.696 -0.711 -1.602 0.25 12.8164 0.0
12.7 -0.751 -1.603 0.25 12.8228 0.0
12.709 -0.792 -1.604 0.25 12.8343 0.0
12.717 -0.833 -1.606 0.23 12.845 0.0
12.724 -0.873 -1.607 0.15 12.8548 0.0
12.701 -0.912 -1.604 0.09 12.8343 0.0
12.706 -0.952 -1.606 0.09 12.8424 0.0
12.704 -1.012 -1.606 0.09 12.845 0.0
12.702 -1.052 -1.606 0.16 12.8463 0.0
12.689 -1.091 -1.605 0.1 12.8366 0.0
12.698 -1.132 -1.606 0.17 12.8491 0.0
0.0 0.0 0.0 0.0 0.0 0.0
12.684 -1.171 -1.605 0.17 12.8387 0.0
12.659 -1.229 -1.602 0.18 12.819 0.0
12.651 -1.269 -1.602 0.18 12.815 0.0
12.645 -1.308 -1.601 0.19 12.8129 0.0
12.649 -1.349 -1.602 0.27 12.8212 0.0
12.646 -1.389 -1.603 0.18 12.8226 0.0
12.657 -1.43 -1.605 0.2 12.8382 0.0
12.673 -1.472 -1.608 0.33 12.8591 0.0
12.69 -1.494 -1.611 0.17 12.8788 0.0
12.732 -1.54 -1.617 0.2 12.9263 0.0
12.763 -1.585 -1.622 0.38 12.9629 0.0
12.781 -1.628 -1.626 0.2 12.9865 0.0
12.709 -1.659 -1.616 0.32 12.9183 0.0
12.023 -1.606 -1.519 0.2 12.2245 0.0
11.91 -1.648 -1.504 0.21 12.1172 0.0
11.851 -1.678 -1.496 0.41 12.0623 0.0
11.874 -1.719 -1.5 0.26 12.0912 0.0
11.839 -1.752 -1.496 0.35 12.0611 0.0
11.88 -1.797 -1.503 0.27 12.1088 0.0
12.058 -1.863 -1.529 0.26 12.2965 0.0
11.914 -1.878 -1.509 0.27 12.1551 0.0
11.819 -1.882 -1.496 0.24 12.061 0.0
11.977 -1.946 -1.52 0.26 12.2289 0.0
12.156 -2.015 -1.546 0.25 12.4185 0.0
11.674 -1.972 -1.478 0.46 11.9313 0.0
11.685 -2.012 -1.48 0.18 11.949 0.0
11.585 -2.032 -1.467 0.36 11.853 0.0
11.563 -2.065 -1.465 0.28 11.837 0.0
11.541 -2.099 -1.462 0.3 11.8211 0.0
11.61 -2.13 -1.473 0.25 11.8953 0.0
11.482 -2.144 -1.455 0.38 11.7707 0.0
11.495 -2.184 -1.458 0.2 11.7911 0.0
11.478 -2.218 -1.457 0.27 11.7808 0.0
11.63 -2.285 -1.48 0.13 11.9444 0.0
11.441 -2.285 -1.453 0.0 11.7571 0.0
12.26 -2.491 -1.573 0.17 12.609 0.0
12.36 -2.572 -1.589 0.14 12.7244 0.0
12.313 -2.603 -1.583 0.11 12.6843 0.0
12.301 -2.641 -1.583 0.35 12.6805 0.0
12.218 -2.663 -1.572 0.16 12.6033 0.0
12.298 -2.721 -1.585 0.42 12.6948 0.0
12.27 -2.755 -1.582 0.12 12.6746 0.0
12.214 -2.762 -1.574 0.2 12.6209 0.0
12.143 -2.786 -1.565 0.15 12.5564 0.0
11.988 -2.79 -1.544 0.09 12.4048 0.0
11.823 -2.791 -1.521 0.14 12.2428 0.0
11.566 -2.768 -1.485 0.07 11.985 0.0
11.373 -2.759 -1.458 0.0 11.7933 0.0
11.289 -2.776 -1.447 0.0 11.715 0.0
12.385 -3.069 -1.608 0.0 12.8605 0.0
12.368 -3.106 -1.607 0.0 12.8529 0.0
12.366 -3.147 -1.608 0.0 12.8611 0.0
12.409 -3.199 -1.616 0.0 12.9162 0.0
12.397 -3.238 -1.616 0.0 12.9144 0.0
12.389 -3.277 -1.616 0.0 12.9166 0.0
12.388 -3.319 -1.617 0.0 12.9264 0.0
12.384 -3.359 -1.618 0.0 12.9331 0.0
12.364 -3.416 -1.618 0.16 12.9289 0.0
12.364 -3.459 -1.619 0.16 12.9404 0.0
12.355 -3.498 -1.62 0.17 12.9424 0.0
12.344 -3.537 -1.62 0.18 12.9425 0.0
12.331 -3.575 -1.619 0.2 12.9405 0.0
0.0 0.0 0.0 0.0 0.0 0.0
12.309 -3.631 -1.618 0.17 12.935 0.0
12.303 -3.672 -1.619 0.14 12.941 0.0
12.308 -3.715 -1.622 0.18 12.9584 0.0
12.298 -3.755 -1.622 0.22 12.9604 0.0
12.275 -3.79 -1.62 0.2 12.9485 0.0
12.275 -3.832 -1.622 0.23 12.9611 0.0
12.266 -3.872 -1.623 0.22 12.9646 0.0
12.268 -3.893 -1.624 0.37 12.9729 0.0
12.276 -3.939 -1.627 0.19 12.9947 0.0
12.26 -3.976 -1.626 0.39 12.9908 0.0
12.272 -4.022 -1.63 0.17 13.0167 0.0
12.25 -4.058 -1.629 0.19 13.0071 0.0
12.196 -4.082 -1.622 0.2 12.9629 0.0
12.163 -4.135 -1.62 0.21 12.9484 0.0
12.133 -4.168 -1.618 0.24 12.9306 0.0
12.086 -4.194 -1.613 0.15 12.8943 0.0
11.997 -4.205 -1.601 0.2 12.813 0.0
11.996 -4.247 -1.603 0.26 12.8262 0.0
11.897 -4.254 -1.59 0.2 12.7343 0.0
11.767 -4.249 -1.573 0.16 12.6091 0.0
11.753 -4.265 -1.572 0.2 12.6014 0.0
11.682 -4.28 -1.563 0.25 12.5392 0.0
11.56 -4.277 -1.547 0.23 12.4225 0.0
11.45 -4.277 -1.532 0.16 12.3184 0.0
11.335 -4.274 -1.517 0.16 12.2086 0.0
11.163 -4.249 -1.493 0.14 12.0373 0.0
11.051 -4.246 -1.478 0.07 11.9305 0.0
10.958 -4.23 -1.465 0.0 11.8371 0.0
0.0 0.0 0.0 0.0 0.0 0.0
11.806 -4.645 -1.598 0.0 12.7872 0.0
11.787 -4.68 -1.597 0.0 12.7823 0.0
11.765 -4.714 -1.596 0.17 12.7744 0.0
11.767 -4.758 -1.599 0.31 12.7929 0.0
11.745 -4.792 -1.597 0.17 12.7851 0.0
11.64 -4.813 -1.585 0.37 12.6951 0.0
11.584 -4.833 -1.579 0.2 12.6507 0.0
11.54 -4.857 -1.574 0.45 12.619 0.0
11.423 -4.849 -1.558 0.14 12.507 0.0
11.36 -4.865 -1.551 0.17 12.4549 0.0
11.377 -4.915 -1.556 0.14 12.4906 0.0
11.302 -4.924 -1.547 0.22 12.4247 0.0
11.236 -4.916 -1.538 0.18 12.3604 0.0
11.228 -4.955 -1.539 0.26 12.3689 0.0
11.189 -4.98 -1.535 0.21 12.343 0.0
11.128 -4.994 -1.528 0.16 12.2926 0.0
11.028 -4.991 -1.515 0.13 12.1993 0.0
11.035 -5.036 -1.519 0.17 12.2246 0.0
11.057 -5.088 -1.525 0.22 12.2666 0.0
10.993 -5.08 -1.516 0.18 12.2045 0.0
10.942 -5.097 -1.511 0.2 12.1651 0.0
10.857 -5.1 -1.5 0.35 12.0886 0.0
10.827 -5.127 -1.498 0.17 12.0729 0.0
10.836 -5.173 -1.502 0.16 12.101 0.0
10.962 -5.276 -1.524 0.19 12.2607 0.0
10.938 -5.307 -1.523 0.3 12.2525 0.0
11.022 -5.412 -1.54 0.0 12.3752 0.0
11.008 -5.448 -1.541 0.0 12.3787 0.0
10.977 -5.476 -1.538 0.09 12.3631 0.0
10.96 -5.51 -1.538 0.09 12.3631 0.0
10.937 -5.542 -1.537 0.09 12.3569 0.0
10.928 -5.581 -1.539 0.09 12.3668 0.0
10.902 -5.589 -1.536 0.09 12.3471 0.0
10.854 -5.607 -1.531 0.16 12.3123 0.0
10.814 -5.63 -1.528 0.09 12.2872 0.0
10.826 -5.679 -1.532 0.09 12.3207 0.0
10.819 -5.719 -1.534 0.1 12.3333 0.0
10.802 -5.754 -1.534 0.15 12.3347 0.0
10.728 -5.757 -1.525 0.09 12.2702 0.0
10.697 -5.762 -1.522 0.13 12.2451 0.0
10.644 -5.777 -1.516 0.09 12.2052 0.0
10.582 -5.786 -1.509 0.15 12.1546 0.0
10.5 -5.784 -1.499 0.09 12.081 0.0
10.437 -5.792 -1.491 0.14 12.0292 0.0
10.348 -5.785 -1.48 0.09 11.9473 0.0
10.286 -5.793 -1.473 0.09 11.8967 0.0
10.139 -5.772 -1.453 0.08 11.757 0.0
10.06 -5.77 -1.444 0.08 11.6868 0.0
9.958 -5.753 -1.43 0.07 11.5889 0.0
9.885 -5.752 -1.421 0.0 11.5247 0.0
9.83 -5.761 -1.415 0.0 11.4813 0.0
9.778 -5.771 -1.409 0.0 11.4411 0.0
9.698 -5.765 -1.399 0.0 11.3685 0.0
0.0 0.0 0.0 0.0 0.0 0.0
10.635 -6.394 -1.558 0.0 12.5066 0.0
10.73 -6.497 -1.578 0.21 12.6425 0.0
10.71 -6.531 -1.578 0.19 12.6431 0.0
10.683 -6.56 -1.576 0.18 12.635 0.0
10.64 -6.58 -1.573 0.29 12.6087 0.0
10.597 -6.6 -1.569 0.19 12.5825 0.0
10.5 -6.562 -1.555 0.28 12.4791 0.0
10.613 -6.679 -1.577 0.19 12.6385 0.0
10.677 -6.767 -1.591 0.26 12.7406 0.0
10.588 -6.757 -1.58 0.16 12.6594 0.0
10.54 -6.773 -1.575 0.36 12.6272 0.0
10.542 -6.821 -1.579 0.21 12.6552 0.0
10.475 -6.825 -1.572 0.2 12.6007 0.0
10.417 -6.856 -1.567 0.2 12.5688 0.0
10.42 -6.906 -1.571 0.33 12.5991 0.0
10.405 -6.943 -1.572 0.17 12.6072 0.0
10.416 -6.998 -1.578 0.16 12.6473 0.0
10.394 -7.03 -1.578 0.27 12.647 0.0
10.347 -7.046 -1.574 0.16 12.6168 0.0
10.365 -7.082 -1.579 0.36 12.6523 0.0
10.341 -7.114 -1.579 0.18 12.6506 0.0
10.242 -7.093 -1.565 0.3 12.5562 0.0
10.228 -7.131 -1.567 0.18 12.5666 0.0
10.122 -7.104 -1.552 0.18 12.4632 0.0
10.067 -7.113 -1.547 0.17 12.4231 0.0
10.038 -7.14 -1.546 0.15 12.415 0.0
10.037 -7.162 -1.547 0.09 12.4269 0.0
10.04 -7.212 -1.552 0.16 12.4589 0.0
9.99 -7.224 -1.547 0.11 12.425 0.0
9.935 -7.232 -1.541 0.23 12.3847 0.0
9.892 -7.248 -1.538 0.16 12.3592 0.0
9.854 -7.268 -1.535 0.16 12.3402 0.0
9.808 -7.282 -1.531 0.18 12.3113 0.0
9.699 -7.272 -1.518 0.18 12.2171 0.0
9.637 -7.272 -1.511 0.18 12.167 0.0
9.57 -7.269 -1.503 0.28 12.1112 0.0
9.512 -7.272 -1.497 0.16 12.0665 0.0
9.449 -7.271 -1.49 0.11 12.0155 0.0
9.396 -7.277 -1.484 0.27 11.9767 0.0
9.334 -7.276 -1.477 0.26 11.9267 0.0
9.279 -7.257 -1.469 0.25 11.8711 0.0
9.23 -7.265 -1.465 0.26 11.8372 0.0
9.148 -7.247 -1.454 0.25 11.7609 0.0
9.077 -7.237 -1.445 0.25 11.6985 0.0
9.022 -7.24 -1.439 0.25 11.657 0.0
8.967 -7.242 -1.433 0.25 11.615 0.0
8.855 -7.22 -1.419 0.06 11.5132 0.0
8.823 -7.24 -1.417 0.0 11.5009 0.0
0.0 0.0 0.0 0.0 0.0 0.0
8.76 -7.235 -1.41 0.0 11.4486 0.0
9.432 -7.842 -1.538 0.0 12.3622 0.0
9.412 -7.876 -1.539 0.0 12.3687 0.0
9.428 -7.94 -1.547 0.27 12.4227 0.0
9.308 -7.914 -1.531 0.21 12.3132 0.0
9.305 -7.962 -1.535 0.31 12.3423 0.0
9.253 -7.968 -1.53 0.11 12.3064 0.0
9.236 -8.004 -1.532 0.36 12.3173 0.0
9.211 -8.032 -1.532 0.22 12.3168 0.0
9.154 -8.034 -1.526 0.25 12.2748 0.0
9.095 -8.032 -1.52 0.38 12.2288 0.0
9.056 -8.023 -1.514 0.18 12.1931 0.0
8.998 -8.022 -1.508 0.36 12.1487 0.0
8.948 -8.028 -1.504 0.18 12.1152 0.0
8.88 -8.018 -1.495 0.38 12.0573 0.0
8.836 -8.028 -1.492 0.19 12.0312 0.0
8.772 -8.021 -1.484 0.36 11.9786 0.0
8.725 -8.028 -1.48 0.2 11.9484 0.0
8.622 -8.008 -1.468 0.33 11.8584 0.0
8.58 -8.019 -1.464 0.19 11.8349 0.0
0.0 0.0 0.0 0.0 0.0 0.0
8.513 -8.007 -1.456 0.34 11.7772 0.0
8.475 -8.021 -1.454 0.22 11.7591 0.0
8.409 -8.009 -1.446 0.44 11.7024 0.0
8.366 -8.018 -1.442 0.16 11.6772 0.0
8.269 -8.001 -1.431 0.25 11.5948 0.0
8.217 -8.0 -1.425 0.21 11.5564 0.0
8.148 -7.983 -1.417 0.38 11.4946 0.0
8.101 -7.986 -1.412 0.19 11.4628 0.0
8.057 -7.994 -1.408 0.33 11.4369 0.0
8.03 -8.016 -1.408 0.2 11.4333 0.0
10.221 10.201 -1.911 0.39 14.5664 0.0
10.26 10.176 -1.913 0.39 14.5766 0.0
10.278 10.129 -1.91 0.45 14.5562 0.0
10.347 10.135 -1.918 0.4 14.6102 0.0
10.409 10.131 -1.924 0.46 14.6522 0.0
10.448 10.105 -1.925 0.48 14.6621 0.0
10.537 10.096 -1.933 0.41 14.7205 0.0
10.598 10.091 -1.939 0.39 14.7616 0.0
0.0 0.0 0.0 0.0 0.0 0.0
10.669 10.095 -1.947 0.33 14.8165 0.0
10.703 10.064 -1.948 0.32 14.82 0.0
10.733 10.029 -1.948 0.31 14.818 0.0
10.715 9.917 -1.935 0.28 14.7276 0.0
10.687 9.829 -1.923 0.29 14.6465 0.0
10.674 9.755 -1.914 0.32 14.5862 0.0
10.68 9.699 -1.909 0.3 14.5526 0.0
10.691 9.648 -1.905 0.31 14.5262 0.0
10.701 9.596 -1.901 0.3 14.4986 0.0
10.726 9.558 -1.9 0.31 14.4918 0.0
10.724 9.525 -1.897 0.31 14.4682 0.0
10.727 9.468 -1.892 0.29 14.4323 0.0
10.737 9.417 -1.888 0.29 14.4058 0.0
10.753 9.372 -1.885 0.29 14.388 0.0
10.774 9.33 -1.884 0.31 14.3763 0.0
10.794 9.289 -1.882 0.24 14.3645 0.0
10.802 9.207 -1.875 0.26 14.3167 0.0
10.832 9.174 -1.875 0.27 14.3182 0.0
10.864 9.142 -1.876 0.3 14.3221 0.0
10.874 9.093 -1.872 0.3 14.2979 0.0
0.0 0.0 0.0 0.0 0.0 0.0
10.888 9.046 -1.87 0.3 14.2785 0.0
10.901 8.999 -1.867 0.3 14.2583 0.0
10.915 8.954 -1.864 0.29 14.2403 0.0
10.936 8.885 -1.86 0.29 14.2126 0.0
10.944 8.834 -1.856 0.31 14.1865 0.0
10.953 8.785 -1.853 0.29 14.1626 0.0
10.963 8.737 -1.85 0.3 14.1402 0.0
10.98 8.694 -1.848 0.32 14.1266 0.0
10.992 8.647 -1.845 0.3 14.1067 0.0
11.003 8.6 -1.842 0.3 14.0861 0.0
10.999 8.569 -1.839 0.29 14.0637 0.0
11.017 8.527 -1.837 0.29 14.052 0.0
11.026 8.479 -1.834 0.3 14.0296 0.0
11.047 8.44 -1.833 0.3 14.0225 0.0
11.064 8.398 -1.831 0.3 14.0104 0.0
11.082 8.357 -1.829 0.31 13.9998 0.0
11.088 8.307 -1.826 0.3 13.9744 0.0
11.098 8.233 -1.82 0.3 13.9377 0.0
11.113 8.19 -1.818 0.3 13.9241 0.0
0.0 0.0 0.0 0.0 0.0 0.0
11.14 8.156 -1.819 0.33 13.9258 0.0
11.15 8.11 -1.816 0.32 13.9066 0.0
11.156 8.061 -1.812 0.3 13.8823 0.0
11.186 8.002 -1.811 0.32 13.8722 0.0
11.198 7.958 -1.809 0.31 13.8563 0.0
11.215 7.917 -1.807 0.29 13.8463 0.0
11.24 7.882 -1.807 0.29 13.8466 0.0
11.255 7.839 -1.805 0.28 13.8341 0.0
11.283 7.806 -1.806 0.31 13.8384 0.0
11.289 7.758 -1.803 0.29 13.8159 0.0
11.318 7.726 -1.804 0.32 13.8218 0.0
11.324 7.704 -1.802 0.28 13.8142 0.0
11.335 7.66 -1.8 0.31 13.7985 0.0
11.344 7.614 -1.798 0.27 13.7801 0.0
11.361 7.574 -1.796 0.3 13.7718 0.0
11.379 7.534 -1.795 0.3 13.7646 0.0
11.387 7.488 -1.793 0.31 13.7459 0.0
11.394 7.416 -1.788 0.31 13.7119 0.0
11.406 7.373 -1.786 0.29 13.6985 0.0
11.412 7.326 -1.783 0.29 13.6778 0.0
0.0 0.0 0.0 0.0 0.0 0.0
11.414 7.276 -1.779 0.29 13.6523 0.0
11.417 7.228 -1.776 0.27 13.6289 0.0
11.432 7.187 -1.774 0.29 13.6195 0.0
11.423 7.106 -1.767 0.29 13.5684 0.0
11.436 7.065 -1.765 0.27 13.5577 0.0
11.448 7.023 -1.764 0.26 13.5459 0.0
11.447 6.972 -1.76 0.25 13.5181 0.0
11.469 6.936 -1.76 0.43 13.5183 0.0
11.455 6.879 -1.754 0.19 13.4764 0.0
11.487 6.849 -1.755 0.23 13.4885 0.0
11.48 6.821 -1.752 0.25 13.468 0.0
11.493 6.78 -1.751 0.39 13.4582 0.0
11.494 6.732 -1.748 0.2 13.4346 0.0
11.513 6.694 -1.747 0.24 13.4317 0.0
11.541 6.662 -1.748 0.39 13.44 0.0
11.533 6.609 -1.743 0.2 13.4062 0.0
11.547 6.569 -1.742 0.22 13.3985 0.0
11.545 6.496 -1.737 0.18 13.3605 0.0
11.57 6.463 -1.738 0.33 13.3662 0.0
0.0 0.0 0.0 0.0 0.0 0.0
11.575 6.417 -1.735 0.18 13.348 0.0
11.595 6.381 -1.735 0.23 13.3481 0.0
11.586 6.328 -1.73 0.2 13.3143 0.0
11.587 6.259 -1.726 0.19 13.282 0.0
11.614 6.226 -1.727 0.23 13.2902 0.0
11.609 6.176 -1.723 0.2 13.262 0.0
11.616 6.133 -1.721 0.22 13.2479 0.0
11.623 6.09 -1.719 0.22 13.2339 0.0
11.641 6.053 -1.718 0.39 13.2327 0.0
11.644 6.008 -1.716 0.19 13.2145 0.0
11.648 5.964 -1.713 0.23 13.1977 0.0
11.642 5.938 -1.711 0.39 13.1804 0.0
11.627 5.884 -1.705 0.18 13.1421 0.0
11.637 5.843 -1.704 0.21 13.1326 0.0
11.641 5.8 -1.702 0.24 13.1168 0.0
11.648 5.758 -1.7 0.26 13.1042 0.0
11.643 5.71 -1.696 0.27 13.0782 0.0
11.647 5.643 -1.692 0.3 13.0522 0.0
11.663 5.606 -1.692 0.28 13.0505 0.0
11.67 5.564 -1.69 0.29 13.0385 0.0
0.0 0.0 0.0 0.0 0.0 0.0
11.667 5.518 -1.687 0.27 13.0159 0.0
11.677 5.478 -1.686 0.28 13.0078 0.0
11.68 5.435 -1.684 0.32 12.9922 0.0
11.684 5.37 -1.68 0.28 12.9682 0.0
11.683 5.325 -1.677 0.29 12.9484 0.0
11.696 5.286 -1.677 0.25 12.9441 0.0
11.713 5.249 -1.677 0.41 12.9444 0.0
11.709 5.204 -1.674 0.21 12.9223 0.0
11.724 5.166 -1.673 0.23 12.9205 0.0
11.722 5.121 -1.67 0.24 12.9003 0.0
11.726 5.101 -1.67 0.38 12.8961 0.0
11.724 5.057 -1.667 0.22 12.8765 0.0
11.733 5.017 -1.666 0.22 12.8689 0.0
11.739 4.976 -1.664 0.38 12.8582 0.0
11.727 4.927 -1.66 0.2 12.8278 0.0
11.745 4.891 -1.66 0.23 12.8305 0.0
11.76 4.854 -1.66 0.35 12.8302 0.0
11.75 4.785 -1.655 0.38 12.7944 0.0
11.75 4.743 -1.653 0.19 12.7785 0.0
11.754 4.701 -1.651 0.37 12.7664 0.0
0.0 0.0 0.0 0.0 0.0 0.0
11.746 4.655 -1.648 0.19 12.7418 0.0
11.761 4.618 -1.648 0.36 12.7422 0.0
11.753 4.552 -1.643 0.39 12.7104 0.0
11.736 4.502 -1.638 0.2 12.6761 0.0
11.733 4.459 -1.635 0.24 12.6578 0.0
11.731 4.416 -1.633 0.39 12.6406 0.0
11.706 4.365 -1.627 0.24 12.5988 0.0
11.704 4.322 -1.624 0.46 12.5818 0.0
11.699 4.279 -1.621 0.39 12.562 0.0
11.7 4.237 -1.619 0.36 12.5484 0.0
11.69 4.213 -1.617 0.3 12.5308 0.0
11.707 4.177 -1.617 0.23 12.5346 0.0
11.718 4.14 -1.617 0.23 12.5326 0.0
11.738 4.106 -1.618 0.3 12.5402 0.0
11.738 4.064 -1.616 0.29 12.5263 0.0
11.734 4.021 -1.614 0.3 12.5084 0.0
11.732 3.959 -1.611 0.32 12.4863 0.0
11.731 3.918 -1.608 0.27 12.4721 0.0
11.755 3.885 -1.61 0.33 12.4846 0.0
11.759 3.845 -1.609 0.29 12.4759 0.0
0.0 0.0 0.0 0.0 0.0 0.0
11.779 3.811 -1.61 0.3 12.4844 0.0
11.791 3.774 -1.61 0.29 12.4845 0.0
11.812 3.719 -1.611 0.28 12.488 0.0
11.832 3.684 -1.612 0.33 12.4967 0.0
11.841 3.647 -1.612 0.3 12.4943 0.0
11.853 3.61 -1.612 0.28 12.495 0.0
11.879 3.577 -1.614 0.32 12.5104 0.0
11.871 3.534 -1.611 0.28 12.4902 0.0
11.892 3.499 -1.613 0.31 12.5006 0.0
11.892 3.479 -1.612 0.28 12.4949 0.0
11.918 3.446 -1.614 0.3 12.5107 0.0
11.925 3.407 -1.613 0.3 12.5066 0.0
11.943 3.372 -1.615 0.34 12.5145 0.0
11.938 3.33 -1.612 0.3 12.4981 0.0
11.948 3.293 -1.612 0.29 12.4979 0.0
11.964 3.236 -1.612 0.29 12.4983 0.0
11.978 3.2 -1.613 0.32 12.5026 0.0
11.965 3.156 -1.609 0.28 12.4784 0.0
11.992 3.123 -1.612 0.29 12.4964 0.0
12.004 3.086 -1.612 0.29 12.4987 0.0
0.0 0.0 0.0 0.0 0.0 0.0
12.009 3.047 -1.612 0.29 12.494 0.0
12.023 3.01 -1.612 0.3 12.4984 0.0
12.031 2.952 -1.611 0.32 12.4922 0.0
12.036 2.914 -1.611 0.3 12.4881 0.0
12.042 2.875 -1.61 0.29 12.4847 0.0
12.043 2.835 -1.609 0.29 12.4764 0.0
12.054 2.798 -1.609 0.31 12.4786 0.0
12.059 2.759 -1.609 0.29 12.4748 0.0
12.073 2.722 -1.61 0.29 12.4803 0.0
12.071 2.702 -1.609 0.3 12.4739 0.0
12.072 2.662 -1.608 0.27 12.4662 0.0
12.09 2.627 -1.609 0.3 12.4763 0.0
12.1 2.589 -1.609 0.29 12.4781 0.0
12.103 2.55 -1.608 0.32 12.4728 0.0
12.107 2.511 -1.608 0.28 12.4688 0.0
12.116 2.453 -1.608 0.3 12.466 0.0
12.116 2.414 -1.606 0.3 12.4581 0.0
12.126 2.376 -1.607 0.27 12.4606 0.0
12.147 2.341 -1.609 0.33 12.4747 0.0
12.146 2.301 -1.608 0.29 12.4662 0.0
0.0 0.0 0.0 0.0 0.0 0.0
12.151 2.262 -1.607 0.29 12.4638 0.0
12.16 2.225 -1.608 0.29 12.466 0.0
12.19 2.171 -1.611 0.29 12.4862 0.0
12.179 2.129 -1.608 0.28 12.4678 0.0
12.206 2.095 -1.611 0.32 12.4888 0.0
12.212 2.056 -1.611 0.28 12.4882 0.0
12.219 2.018 -1.611 0.32 12.4889 0.0
12.221 1.979 -1.61 0.29 12.4844 0.0
12.224 1.96 -1.61 0.29 12.4844 0.0
12.211 1.918 -1.607 0.27 12.4647 0.0
12.238 1.883 -1.611 0.3 12.4864 0.0
12.232 1.843 -1.609 0.29 12.4743 0.0
12.25 1.806 -1.611 0.3 12.4868 0.0
12.251 1.767 -1.61 0.28 12.482 0.0
12.263 1.729 -1.611 0.3 12.4886 0.0
12.265 1.671 -1.61 0.3 12.4826 0.0
12.272 1.632 -1.61 0.3 12.4843 0.0
12.279 1.594 -1.611 0.28 12.4864 0.0
12.278 1.555 -1.61 0.28 12.4804 0.0
12.285 1.516 -1.61 0.28 12.4825 0.0
12.292 1.478 -1.61 0.31 12.4848 0.0
0.0 0.0 0.0 0.0 0.0 0.0
12.289 1.419 -1.609 0.29 12.4749 0.0
12.295 1.381 -1.609 0.25 12.4765 0.0
12.272 1.339 -1.605 0.29 12.4487 0.0
12.295 1.303 -1.608 0.3 12.468 0.0
12.313 1.265 -1.61 0.23 12.4821 0.0
12.301 1.225 -1.608 0.46 12.466 0.0
12.299 1.186 -1.607 0.23 12.4601 0.0
12.317 1.168 -1.609 0.28 12.4764 0.0
12.336 1.131 -1.611 0.36 12.4921 0.0
12.32 1.09 -1.608 0.27 12.4722 0.0
12.325 1.052 -1.609 0.26 12.474 0.0
12.348 1.015 -1.612 0.23 12.4941 0.0
12.351 0.976 -1.612 0.27 12.4939 0.0
12.347 0.936 -1.611 0.27 12.4868 0.0
12.363 0.879 -1.612 0.39 12.4986 0.0
12.352 0.839 -1.61 0.18 12.4847 0.0
12.356 0.801 -1.611 0.23 12.4863 0.0
12.376 0.763 -1.613 0.37 12.504 0.0
12.387 0.725 -1.614 0.21 12.5127 0.0
12.373 0.685 -1.612 0.22 12.4964 0.0
0.0 0.0 0.0 0.0 0.0 0.0
12.387 0.646 -1.614 0.34 12.5084 0.0
12.39 0.588 -1.614 0.35 12.5085 0.0
12.39 0.549 -1.613 0.19 12.5066 0.0
12.387 0.51 -1.613 0.36 12.502 0.0
12.375 0.47 -1.611 0.2 12.4883 0.0
12.377 0.432 -1.611 0.37 12.4889 0.0
12.386 0.393 -1.612 0.2 12.4966 0.0
12.367 0.373 -1.609 0.23 12.4768 0.0
12.372 0.334 -1.61 0.4 12.4808 0.0
12.341 0.294 -1.605 0.21 12.4484 0.0
12.346 0.256 -1.606 0.24 12.4526 0.0
12.341 0.217 -1.605 0.42 12.4468 0.0
12.325 0.178 -1.602 0.21 12.43 0.0
12.342 0.139 -1.605 0.27 12.4467 0.0
12.336 0.081 -1.604 0.27 12.4401 0.0
12.34 0.042 -1.604 0.29 12.4439 0.0
12.342 0.004 -1.605 0.27 12.4459 0.0
12.356 -0.035 -1.607 0.29 12.4601 0.0
12.356 -0.074 -1.607 0.29 12.4603 0.0
12.358 -0.113 -1.607 0.27 12.4626 0.0
12.356 -0.132 -1.607 0.27 12.4608 0.0
12.353 -0.171 -1.606 0.29 12.4581 0.0
12.355 -0.21 -1.607 0.29 12.4608 0.0
12.348 -0.249 -1.606 0.29 12.4545 0.0
12.345 -0.287 -1.606 0.29 12.4523 0.0
12.346 -0.326 -1.606 0.27 12.4543 0.0
12.347 -0.365 -1.606 0.27 12.4564 0.0
12.344 -0.404 -1.606 0.27 12.4546 0.0
12.349 -0.423 -1.607 0.26 12.4603 0.0
12.34 -0.462 -1.606 0.28 12.4526 0.0
12.336 -0.5 -1.605 0.27 12.45 0.0
12.341 -0.539 -1.606 0.29 12.4567 0.0
12.335 -0.578 -1.606 0.26 12.4525 0.0
12.347 -0.617 -1.608 0.25 12.4665 0.0
12.349 -0.656 -1.608 0.24 12.4705 0.0
12.355 -0.715 -1.61 0.21 12.48 0.0
12.351 -0.754 -1.609 0.23 12.4782 0.0
12.361 -0.793 -1.611 0.38 12.4907 0.0
12.354 -0.832 -1.611 0.19 12.4863 0.0
12.367 -0.872 -1.613 0.36 12.5022 0.0
12.36 -0.91 -1.612 0.2 12.4978 0.0
12.367 -0.93 -1.613 0.21 12.5064 0.0
12.362 -0.969 -1.613 0.25 12.5044 0.0
12.365 -1.008 -1.614 0.23 12.5106 0.0
12.356 -1.047 -1.613 0.38 12.5047 0.0
12.342 -1.085 -1.612 0.22 12.494 0.0
12.319 -1.122 -1.609 0.24 12.4742 0.0
12.331 -1.162 -1.611 0.41 12.49 0.0
12.308 -1.179 -1.608 0.21 12.4685 0.0
12.302 -1.218 -1.608 0.25 12.4663 0.0
12.29 -1.256 -1.606 0.27 12.458 0.0
12.277 -1.293 -1.605 0.28 12.4488 0.0
12.284 -1.333 -1.607 0.27 12.4602 0.0
12.28 -1.372 -1.607 0.27 12.4605 0.0
12.297 -1.413 -1.61 0.32 12.4822 0.0
12.314 -1.473 -1.613 0.28 12.5062 0.0
12.333 -1.515 -1.617 0.29 12.5305 0.0
12.403 -1.563 -1.628 0.32 12.6067 0.0
12.413 -1.604 -1.63 0.32 12.6219 0.0
12.42 -1.644 -1.632 0.3 12.6342 0.0
12.417 -1.684 -1.632 0.36 12.6365 0.0
12.208 -1.675 -1.602 0.3 12.4261 0.0
11.891 -1.67 -1.556 0.42 12.1081 0.0
11.774 -1.692 -1.539 0.27 11.9941 0.0
11.696 -1.719 -1.529 0.32 11.9201 0.0
11.724 -1.76 -1.534 0.41 11.9542 0.0
11.687 -1.792 -1.529 0.3 11.922 0.0
11.713 -1.834 -1.534 0.4 11.9545 0.0
11.636 -1.841 -1.523 0.5 11.8788 0.0
11.663 -1.882 -1.528 0.46 11.9123 0.0
11.661 -1.92 -1.528 0.41 11.9164 0.0
11.641 -1.954 -1.526 0.3 11.9021 0.0
11.627 -1.989 -1.525 0.57 11.8941 0.0
11.615 -2.025 -1.524 0.51 11.8883 0.0
11.539 -2.068 -1.514 0.38 11.8202 0.0
11.523 -2.102 -1.513 0.41 11.8105 0.0
11.532 -2.141 -1.515 0.37 11.8265 0.0
11.511 -2.175 -1.513 0.37 11.812 0.0
11.573 -2.224 -1.523 0.31 11.8828 0.0
11.624 -2.272 -1.532 0.29 11.9426 0.0
11.77 -2.338 -1.555 0.21 12.1003 0.0
11.869 -2.377 -1.57 0.34 12.2061 0.0
11.961 -2.434 -1.585 0.39 12.3086 0.0
11.953 -2.472 -1.585 0.31 12.3084 0.0
12.001 -2.521 -1.593 0.29 12.366 0.0
11.995 -2.559 -1.593 0.42 12.3679 0.0
11.947 -2.588 -1.587 0.36 12.3267 0.0
11.971 -2.633 -1.592 0.27 12.3601 0.0
12.011 -2.681 -1.6 0.32 12.4102 0.0
11.98 -2.694 -1.595 0.32 12.3823 0.0
11.962 -2.729 -1.594 0.28 12.3725 0.0
11.654 -2.699 -1.549 0.26 12.0623 0.0
11.746 -2.758 -1.564 0.23 12.1664 0.0
11.731 -2.794 -1.563 0.23 12.16 0.0
11.588 -2.799 -1.543 0.4 12.0207 0.0
11.144 -2.748 -1.478 0.17 11.5726 0.0
11.008 -2.752 -1.459 0.09 11.4402 0.0
0.0 0.0 0.0 0.0 0.0 0.0
12.023 -3.083 -1.615 0.0 12.5166 0.0
12.028 -3.125 -1.617 0.49 12.5321 0.0
12.064 -3.174 -1.624 0.2 12.5798 0.0
12.123 -3.231 -1.634 0.27 12.6521 0.0
12.13 -3.253 -1.636 0.25 12.6647 0.0
12.133 -3.294 -1.638 0.32 12.6785 0.0
12.105 -3.328 -1.636 0.32 12.6603 0.0
12.098 -3.367 -1.636 0.37 12.6639 0.0
12.113 -3.412 -1.64 0.3 12.6908 0.0
12.079 -3.443 -1.637 0.29 12.6663 0.0
12.131 -3.499 -1.646 0.3 12.7324 0.0
12.137 -3.522 -1.648 0.36 12.7447 0.0
12.072 -3.544 -1.64 0.27 12.6879 0.0
12.063 -3.583 -1.64 0.3 12.6903 0.0
11.966 -3.595 -1.627 0.39 12.5999 0.0
12.023 -3.653 -1.637 0.3 12.6719 0.0
12.072 -3.709 -1.647 0.35 12.7359 0.0
12.057 -3.746 -1.646 0.36 12.7324 0.0
11.998 -3.769 -1.639 0.32 12.6824 0.0
12.012 -3.836 -1.644 0.36 12.7164 0.0
11.943 -3.856 -1.635 0.31 12.6561 0.0
12.044 -3.93 -1.652 0.24 12.7762 0.0
11.981 -3.951 -1.645 0.26 12.7225 0.0
11.95 -3.982 -1.642 0.38 12.7026 0.0
11.9 -4.007 -1.636 0.23 12.6626 0.0
11.852 -4.012 -1.63 0.42 12.6184 0.0
11.897 -4.069 -1.639 0.23 12.68 0.0
11.862 -4.099 -1.635 0.29 12.6563 0.0
11.81 -4.122 -1.629 0.29 12.6143 0.0
11.677 -4.117 -1.611 0.22 12.4859 0.0
11.618 -4.138 -1.603 0.21 12.4367 0.0
11.588 -4.168 -1.601 0.27 12.4184 0.0
11.585 -4.188 -1.601 0.25 12.4223 0.0
11.583 -4.228 -1.603 0.24 12.4343 0.0
11.521 -4.247 -1.595 0.2 12.382 0.0
11.476 -4.271 -1.591 0.25 12.3479 0.0
11.417 -4.29 -1.583 0.24 12.2987 0.0
11.31 -4.291 -1.569 0.27 12.198 0.0
11.102 -4.272 -1.539 0.25 11.9947 0.0
11.005 -4.275 -1.526 0.25 11.9044 0.0
10.831 -4.247 -1.501 0.36 11.7303 0.0
10.722 -4.243 -1.486 0.18 11.6264 0.0
10.637 -4.249 -1.475 0.17 11.5488 0.0
0.0 0.0 0.0 0.0 0.0 0.0
11.419 -4.642 -1.602 0.0 12.4301 0.0
11.646 -4.755 -1.639 0.0 12.6856 0.0
11.36 -4.681 -1.597 0.27 12.39 0.0
11.302 -4.699 -1.59 0.28 12.3428 0.0
11.303 -4.741 -1.592 0.38 12.36 0.0
11.252 -4.761 -1.587 0.23 12.3204 0.0
11.242 -4.799 -1.587 0.28 12.3261 0.0
11.222 -4.832 -1.587 0.41 12.3207 0.0
11.112 -4.805 -1.57 0.23 12.2078 0.0
11.101 -4.842 -1.571 0.36 12.2125 0.0
11.04 -4.857 -1.564 0.28 12.1622 0.0
11.025 -4.892 -1.564 0.37 12.1626 0.0
10.93 -4.891 -1.551 0.31 12.0745 0.0
10.918 -4.927 -1.552 0.37 12.0784 0.0
10.861 -4.942 -1.545 0.25 12.0321 0.0
10.831 -4.99 -1.544 0.38 12.0247 0.0
10.73 -4.985 -1.53 0.31 11.93 0.0
10.686 -5.005 -1.526 0.28 11.8983 0.0
10.642 -5.025 -1.521 0.27 11.8666 0.0
10.572 -5.034 -1.512 0.32 11.8065 0.0
10.649 -5.111 -1.527 0.29 11.9103 0.0
10.642 -5.149 -1.529 0.22 11.9207 0.0
10.612 -5.155 -1.525 0.41 11.896 0.0
10.589 -5.185 -1.524 0.21 11.8884 0.0
10.596 -5.23 -1.528 0.23 11.9148 0.0
10.592 -5.269 -1.53 0.23 11.9287 0.0
10.646 -5.338 -1.541 0.37 12.0086 0.0
10.705 -5.409 -1.554 0.21 12.0942 0.0
10.706 -5.452 -1.557 0.2 12.1147 0.0
10.715 -5.477 -1.56 0.22 12.1343 0.0
10.595 -5.459 -1.543 0.21 12.0181 0.0
10.701 -5.556 -1.563 0.23 12.1583 0.0
10.722 -5.609 -1.569 0.2 12.2018 0.0
10.693 -5.637 -1.567 0.33 12.189 0.0
10.687 -5.677 -1.569 0.24 12.2025 0.0
10.644 -5.718 -1.567 0.22 12.1838 0.0
10.693 -5.788 -1.578 0.59 12.261 0.0
10.593 -5.777 -1.564 0.7 12.1668 0.0
10.507 -5.773 -1.553 0.22 12.0887 0.0
10.412 -5.764 -1.54 0.16 12.0002 0.0
10.28 -5.733 -1.521 0.2 11.8684 0.0
10.163 -5.71 -1.505 0.22 11.754 0.0
10.17 -5.735 -1.507 0.35 11.7724 0.0
10.188 -5.787 -1.513 0.19 11.8141 0.0
10.137 -5.801 -1.508 0.39 11.7764 0.0
10.054 -5.795 -1.497 0.19 11.7007 0.0
9.986 -5.798 -1.489 0.24 11.6428 0.0
9.933 -5.81 -1.483 0.39 11.6026 0.0
9.838 -5.796 -1.47 0.18 11.5126 0.0
9.788 -5.787 -1.463 0.22 11.4645 0.0
9.717 -5.787 -1.454 0.35 11.4028 0.0
9.621 -5.77 -1.441 0.18 11.3107 0.0
9.548 -5.768 -1.431 0.35 11.2464 0.0
9.486 -5.771 -1.424 0.18 11.1945 0.0
9.417 -5.77 -1.415 0.2 11.1344 0.0
9.355 -5.773 -1.408 0.21 11.0827 0.0
9.3 -5.779 -1.401 0.07 11.0386 0.0
10.296 -6.463 -1.578 0.34 12.2584 0.0
10.279 -6.497 -1.578 0.23 12.2621 0.0
10.277 -6.541 -1.581 0.25 12.2842 0.0
10.243 -6.565 -1.579 0.26 12.2683 0.0
10.209 -6.588 -1.577 0.3 12.252 0.0
10.18 -6.615 -1.575 0.27 12.2422 0.0
10.171 -6.632 -1.576 0.25 12.244 0.0
10.141 -6.657 -1.574 0.27 12.2325 0.0
10.115 -6.686 -1.573 0.27 12.2266 0.0
10.071 -6.702 -1.569 0.25 12.1985 0.0
10.074 -6.751 -1.573 0.47 12.2285 0.0
10.033 -6.769 -1.57 0.24 12.2043 0.0
10.051 -6.827 -1.577 0.27 12.2522 0.0
10.021 -6.875 -1.577 0.32 12.2545 0.0
0.0 0.0 0.0 0.0 0.0 0.0
10.048 -6.94 -1.586 0.23 12.3143 0.0
10.008 -6.96 -1.582 0.27 12.2925 0.0
9.991 -6.994 -1.583 0.29 12.298 0.0
9.951 -7.013 -1.58 0.29 12.276 0.0
9.873 -7.028 -1.572 0.23 12.2205 0.0
9.909 -7.1 -1.582 0.44 12.2923 0.0
9.803 -7.071 -1.567 0.18 12.1882 0.0
9.843 -7.147 -1.579 0.29 12.2661 0.0
9.766 -7.139 -1.569 0.28 12.1984 0.0
9.752 -7.175 -1.57 0.24 12.2085 0.0
9.739 -7.213 -1.572 0.29 12.2207 0.0
9.738 -7.236 -1.574 0.27 12.2338 0.0
9.676 -7.237 -1.567 0.29 12.1842 0.0
9.656 -7.27 -1.567 0.28 12.188 0.0
9.561 -7.246 -1.554 0.24 12.0968 0.0
9.475 -7.228 -1.543 0.24 12.0167 0.0
9.363 -7.189 -1.526 0.41 11.9028 0.0
9.332 -7.212 -1.525 0.19 11.8922 0.0
9.335 -7.285 -1.532 0.29 11.9399 0.0
0.0 0.0 0.0 0.0 0.0 0.0
9.277 -7.287 -1.525 0.3 11.8949 0.0
9.234 -7.3 -1.521 0.27 11.8689 0.0
9.167 -7.294 -1.513 0.28 11.8121 0.0
9.113 -7.298 -1.507 0.29 11.7719 0.0
9.052 -7.296 -1.5 0.28 11.7226 0.0
8.956 -7.289 -1.489 0.28 11.6429 0.0
8.901 -7.291 -1.482 0.27 11.601 0.0
8.83 -7.28 -1.473 0.25 11.5385 0.0
8.771 -7.277 -1.467 0.27 11.4907 0.0
8.688 -7.255 -1.455 0.27 11.412 0.0
8.62 -7.244 -1.447 0.27 11.3523 0.0
8.579 -7.256 -1.443 0.28 11.3283 0.0
8.539 -7.245 -1.438 0.25 11.2904 0.0
8.489 -7.249 -1.432 0.34 11.2544 0.0
8.442 -7.255 -1.428 0.15 11.2224 0.0
8.382 -7.249 -1.421 0.14 11.1725 0.0
8.362 -7.278 -1.421 0.04 11.1764 0.0
9.039 -7.914 -1.557 0.0 12.1144 0.0
8.979 -7.913 -1.55 0.34 12.0682 0.0
8.947 -7.959 -1.551 0.31 12.0748 0.0
8.895 -7.963 -1.546 0.34 12.0383 0.0
0.0 0.0 0.0 0.0 0.0 0.0
8.862 -7.985 -1.544 0.31 12.0283 0.0
8.811 -7.989 -1.539 0.29 11.9928 0.0
8.759 -7.992 -1.534 0.34 11.956 0.0
8.71 -8.023 -1.532 0.29 11.9407 0.0
8.663 -8.03 -1.527 0.32 11.9105 0.0
8.606 -8.027 -1.521 0.31 11.8663 0.0
8.557 -8.033 -1.516 0.29 11.8343 0.0
8.506 -8.035 -1.511 0.31 11.7982 0.0
8.458 -8.04 -1.506 0.38 11.7664 0.0
8.391 -8.027 -1.498 0.28 11.7084 0.0
8.358 -8.021 -1.494 0.28 11.6801 0.0
8.31 -8.025 -1.489 0.31 11.6479 0.0
8.255 -8.023 -1.483 0.33 11.6066 0.0
8.192 -8.011 -1.476 0.34 11.5526 0.0
8.135 -8.007 -1.469 0.3 11.5086 0.0
8.083 -8.006 -1.464 0.37 11.4706 0.0
8.034 -8.007 -1.459 0.34 11.4362 0.0
9.844 9.801 -1.931 0.32 14.0247 0.0
9.857 9.752 -1.927 0.32 13.9991 0.0
9.869 9.703 -1.923 0.34 13.9729 0.0
9.891 9.664 -1.921 0.35 13.9612 0.0
9.878 9.62 -1.915 0.28 13.9207 0.0
9.899 9.581 -1.913 0.34 13.9085 0.0
9.921 9.542 -1.911 0.35 13.897 0.0
9.929 9.49 -1.907 0.34 13.8666 0.0
9.955 9.455 -1.906 0.34 13.8612 0.0
9.977 9.417 -1.904 0.32 13.8508 0.0
9.992 9.343 -1.898 0.34 13.8107 0.0
10.009 9.299 -1.896 0.33 13.793 0.0
10.026 9.257 -1.893 0.34 13.7767 0.0
0.0 0.0 0.0 0.0 0.0 0.0
10.051 9.221 -1.892 0.36 13.7706 0.0
10.052 9.164 -1.886 0.24 13.7324 0.0
10.079 9.132 -1.886 0.32 13.7309 0.0
10.09 9.055 -1.879 0.31 13.6869 0.0
10.106 9.013 -1.877 0.33 13.6707 0.0
10.12 8.968 -1.874 0.3 13.6511 0.0
10.13 8.92 -1.87 0.29 13.6265 0.0
10.152 8.883 -1.869 0.32 13.6185 0.0
10.168 8.841 -1.867 0.34 13.6028 0.0
10.172 8.788 -1.862 0.29 13.5708 0.0
10.172 8.761 -1.859 0.32 13.5529 0.0
10.19 8.721 -1.857 0.32 13.5403 0.0
10.204 8.678 -1.855 0.33 13.523 0.0
10.213 8.63 -1.851 0.29 13.4985 0.0
10.237 8.596 -1.85 0.35 13.4948 0.0
10.243 8.546 -1.846 0.3 13.467 0.0
10.271 8.487 -1.844 0.32 13.4508 0.0
10.291 8.45 -1.842 0.32 13.4425 0.0
10.302 8.405 -1.839 0.32 13.4223 0.0
10.323 8.368 -1.838 0.31 13.4151 0.0
10.329 8.319 -1.834 0.33 13.3887 0.0
0.0 0.0 0.0 0.0 0.0 0.0
10.341 8.276 -1.832 0.3 13.371 0.0
10.346 8.2 -1.825 0.29 13.3271 0.0
10.379 8.173 -1.826 0.32 13.3363 0.0
10.394 8.132 -1.824 0.34 13.3226 0.0
10.398 8.083 -1.82 0.31 13.2953 0.0
10.418 8.046 -1.819 0.29 13.2884 0.0
10.447 8.016 -1.82 0.33 13.2932 0.0
10.465 7.978 -1.819 0.32 13.2843 0.0
10.483 7.939 -1.817 0.33 13.2749 0.0
10.489 7.918 -1.816 0.28 13.2669 0.0
10.518 7.889 -1.817 0.3 13.2728 0.0
10.548 7.859 -1.818 0.31 13.2789 0.0
10.568 7.822 -1.817 0.32 13.2728 0.0
10.578 7.779 -1.814 0.3 13.2551 0.0
10.597 7.742 -1.813 0.32 13.2485 0.0
10.618 7.68 -1.81 0.32 13.2288 0.0
10.629 7.638 -1.808 0.29 13.213 0.0
10.648 7.601 -1.807 0.29 13.2068 0.0
10.665 7.563 -1.806 0.29 13.1986 0.0
10.683 7.525 -1.804 0.3 13.1912 0.0
0.0 0.0 0.0 0.0 0.0 0.0
10.698 7.485 -1.803 0.3 13.1804 0.0
10.709 7.443 -1.8 0.32 13.1651 0.0
10.709 7.369 -1.794 0.29 13.1226 0.0
10.718 7.325 -1.791 0.28 13.1049 0.0
10.731 7.285 -1.789 0.3 13.093 0.0
10.736 7.239 -1.786 0.3 13.0711 0.0
10.737 7.191 -1.782 0.31 13.0449 0.0
10.751 7.152 -1.781 0.27 13.0348 0.0
10.757 7.132 -1.78 0.32 13.0287 0.0
10.753 7.08 -1.775 0.27 12.9963 0.0
10.777 7.048 -1.775 0.28 12.9988 0.0
10.788 7.006 -1.773 0.29 12.9849 0.0
10.8 6.966 -1.771 0.27 12.9731 0.0
10.806 6.922 -1.769 0.3 12.9543 0.0
10.826 6.887 -1.768 0.29 12.9522 0.0
10.835 6.822 -1.764 0.27 12.9247 0.0
10.837 6.775 -1.76 0.28 12.9011 0.0
10.858 6.741 -1.76 0.29 12.901 0.0
10.862 6.696 -1.757 0.28 12.8805 0.0
10.87 6.654 -1.755 0.25 12.8652 0.0
10.897 6.624 -1.756 0.45 12.8727 0.0
10.887 6.571 -1.751 0.18 12.8363 0.0
10.901 6.556 -1.751 0.22 12.8405 0.0
10.912 6.516 -1.749 0.39 12.8292 0.0
10.911 6.469 -1.746 0.18 12.8042 0.0
10.933 6.436 -1.746 0.23 12.8063 0.0
10.957 6.404 -1.747 0.4 12.8109 0.0
10.95 6.354 -1.742 0.18 12.7793 0.0
10.968 6.318 -1.742 0.23 12.7769 0.0
10.974 6.299 -1.741 0.38 12.7725 0.0
10.982 6.258 -1.739 0.2 12.759 0.0
10.995 6.219 -1.738 0.39 12.7509 0.0
10.999 6.176 -1.735 0.18 12.7331 0.0
11.003 6.133 -1.732 0.25 12.7153 0.0
11.013 6.093 -1.731 0.39 12.7046 0.0
11.007 6.022 -1.725 0.24 12.6647 0.0
11.026 5.988 -1.725 0.4 12.6651 0.0
11.011 5.935 -1.719 0.18 12.6262 0.0
11.02 5.895 -1.717 0.21 12.6151 0.0
11.047 5.865 -1.719 0.26 12.625 0.0
11.035 5.815 -1.713 0.23 12.5905 0.0
11.043 5.775 -1.712 0.25 12.5789 0.0
11.047 5.733 -1.709 0.28 12.5628 0.0
11.037 5.705 -1.706 0.3 12.5408 0.0
11.049 5.668 -1.705 0.27 12.5345 0.0
11.071 5.635 -1.706 0.31 12.5392 0.0
11.078 5.595 -1.704 0.32 12.5272 0.0
11.07 5.548 -1.7 0.29 12.4986 0.0
11.083 5.51 -1.699 0.3 12.4932 0.0
11.089 5.492 -1.698 0.3 12.4904 0.0
11.096 5.452 -1.696 0.32 12.4789 0.0
11.099 5.41 -1.694 0.3 12.463 0.0
11.098 5.367 -1.691 0.27 12.4431 0.0
11.12 5.334 -1.692 0.28 12.4486 0.0
11.128 5.295 -1.69 0.29 12.4389 0.0
11.139 5.258 -1.69 0.29 12.433 0.0
11.137 5.193 -1.685 0.27 12.4032 0.0
11.131 5.148 -1.681 0.28 12.3785 0.0
11.149 5.114 -1.682 0.27 12.3807 0.0
11.151 5.072 -1.679 0.28 12.3648 0.0
11.156 5.032 -1.677 0.28 12.3527 0.0
11.159 4.991 -1.675 0.25 12.3385 0.0
11.18 4.959 -1.676 0.43 12.3448 0.0
11.161 4.929 -1.672 0.16 12.315 0.0
11.171 4.892 -1.671 0.25 12.3091 0.0
11.193 4.86 -1.672 0.43 12.3166 0.0
11.174 4.81 -1.666 0.16 12.2788 0.0
11.189 4.775 -1.666 0.23 12.2788 0.0
11.202 4.739 -1.666 0.41 12.2767 0.0
11.186 4.691 -1.661 0.19 12.243 0.0
11.186 4.67 -1.66 0.25 12.2348 0.0
11.195 4.633 -1.659 0.41 12.2289 0.0
11.171 4.582 -1.652 0.2 12.1867 0.0
11.187 4.547 -1.653 0.25 12.1884 0.0
11.198 4.511 -1.652 0.44 12.185 0.0
11.175 4.461 -1.646 0.2 12.1446 0.0
11.182 4.402 -1.643 0.3 12.1291 0.0
11.168 4.357 -1.639 0.41 12.0993 0.0
11.152 4.31 -1.634 0.39 12.067 0.0
11.154 4.271 -1.632 0.39 12.0547 0.0
11.156 4.232 -1.63 0.28 12.0426 0.0
11.162 4.194 -1.629 0.22 12.0347 0.0
11.183 4.161 -1.63 0.29 12.0429 0.0
11.187 4.123 -1.629 0.31 12.0334 0.0
11.199 4.107 -1.63 0.31 12.0392 0.0
11.174 4.059 -1.624 0.32 11.9988 0.0
11.176 4.02 -1.622 0.32 11.9873 0.0
11.181 3.982 -1.621 0.33 11.9791 0.0
11.193 3.947 -1.621 0.29 11.9787 0.0
11.206 3.911 -1.621 0.33 11.9791 0.0
11.199 3.889 -1.619 0.27 11.9651 0.0
11.224 3.859 -1.621 0.33 11.9791 0.0
11.227 3.82 -1.619 0.3 11.9691 0.0
11.248 3.788 -1.621 0.37 11.9789 0.0
11.267 3.755 -1.622 0.32 11.9865 0.0
11.27 3.717 -1.62 0.3 11.9772 0.0
11.296 3.686 -1.623 0.32 11.9925 0.0
11.3 3.629 -1.621 0.31 11.9786 0.0
11.308 3.592 -1.62 0.27 11.9749 0.0
11.34 3.563 -1.623 0.34 11.9969 0.0
11.345 3.525 -1.623 0.29 11.9904 0.0
11.36 3.491 -1.623 0.31 11.9946 0.0
11.371 3.455 -1.623 0.29 11.9946 0.0
11.388 3.421 -1.624 0.3 12.0011 0.0
11.387 3.402 -1.623 0.32 11.9946 0.0
11.394 3.365 -1.623 0.3 11.9909 0.0
11.405 3.329 -1.623 0.32 11.9913 0.0
11.411 3.292 -1.622 0.3 11.9866 0.0
11.435 3.26 -1.624 0.32 12.001 0.0
11.43 3.22 -1.622 0.32 11.9852 0.0
11.448 3.186 -1.623 0.33 11.9934 0.0
11.456 3.169 -1.623 0.3 11.9965 0.0
11.459 3.131 -1.622 0.32 11.9893 0.0
11.468 3.095 -1.622 0.33 11.9885 0.0
11.482 3.06 -1.623 0.32 11.9931 0.0
11.484 3.022 -1.622 0.3 11.9852 0.0
11.491 2.985 -1.621 0.29 11.9825 0.0
11.507 2.931 -1.622 0.31 11.9847 0.0
11.516 2.895 -1.622 0.32 11.9846 0.0
11.522 2.858 -1.621 0.34 11.9813 0.0
11.519 2.819 -1.619 0.3 11.9689 0.0
11.532 2.784 -1.62 0.28 11.9734 0.0
11.55 2.75 -1.621 0.36 11.983 0.0
11.539 2.709 -1.618 0.32 11.9627 0.0
11.547 2.692 -1.619 0.29 11.9667 0.0
11.556 2.656 -1.619 0.31 11.9673 0.0
11.552 2.617 -1.617 0.33 11.9546 0.0
11.57 2.582 -1.619 0.32 11.9646 0.0
11.586 2.548 -1.62 0.34 11.973 0.0
11.577 2.508 -1.617 0.31 11.9554 0.0
11.584 2.471 -1.617 0.29 11.9545 0.0
11.592 2.435 -1.617 0.32 11.9548 0.0
11.598 2.417 -1.617 0.33 11.957 0.0
11.594 2.378 -1.616 0.28 11.9452 0.0
11.621 2.346 -1.619 0.32 11.9655 0.0
11.63 2.31 -1.619 0.38 11.9672 0.0
11.623 2.27 -1.617 0.26 11.9525 0.0
11.638 2.235 -1.618 0.31 11.9606 0.0
11.651 2.2 -1.619 0.32 11.9669 0.0
11.653 2.143 -1.618 0.3 11.9584 0.0
11.658 2.107 -1.617 0.31 11.9567 0.0
11.667 2.07 -1.618 0.3 11.9592 0.0
11.685 2.036 -1.62 0.29 11.9712 0.0
11.689 1.999 -1.619 0.33 11.9687 0.0
11.707 1.964 -1.621 0.29 11.9808 0.0
11.702 1.944 -1.62 0.3 11.9725 0.0
11.705 1.907 -1.619 0.29 11.9693 0.0
11.711 1.87 -1.619 0.31 11.9694 0.0
11.724 1.834 -1.62 0.31 11.9767 0.0
11.724 1.797 -1.62 0.31 11.971 0.0
11.73 1.76 -1.62 0.28 11.9714 0.0
11.734 1.704 -1.619 0.31 11.9671 0.0
0.0 0.0 0.0 0.0 0.0 0.0
11.725 1.665 -1.617 0.3 11.9525 0.0
11.742 1.63 -1.619 0.28 11.9646 0.0
11.753 1.594 -1.62 0.31 11.9707 0.0
11.752 1.556 -1.619 0.29 11.9646 0.0
11.765 1.52 -1.62 0.3 11.9729 0.0
11.75 1.462 -1.617 0.28 11.9505 0.0
11.765 1.426 -1.618 0.34 11.961 0.0
11.765 1.389 -1.617 0.29 11.9566 0.0
11.77 1.352 -1.617 0.33 11.9572 0.0
11.768 1.314 -1.617 0.28 11.951 0.0
11.786 1.279 -1.619 0.32 11.9652 0.0
11.774 1.24 -1.616 0.26 11.9489 0.0
11.794 1.205 -1.619 0.34 11.9654 0.0
11.782 1.185 -1.617 0.29 11.9513 0.0
11.789 1.148 -1.617 0.28 11.9546 0.0
11.814 1.113 -1.62 0.29 11.9764 0.0
11.82 1.076 -1.621 0.31 11.9791 0.0
11.829 1.039 -1.622 0.31 11.9848 0.0
11.826 1.002 -1.621 0.29 11.9786 0.0
11.831 0.946 -1.621 0.27 11.9789 0.0
0.0 0.0 0.0 0.0 0.0 0.0
11.832 0.909 -1.62 0.3 11.9769 0.0
11.845 0.872 -1.622 0.27 11.9873 0.0
11.849 0.835 -1.622 0.25 11.9886 0.0
11.846 0.798 -1.621 0.26 11.983 0.0
11.852 0.761 -1.622 0.24 11.9867 0.0
11.866 0.724 -1.624 0.42 11.9985 0.0
11.874 0.668 -1.624 0.25 12.0031 0.0
11.884 0.631 -1.626 0.4 12.0113 0.0
11.862 0.593 -1.622 0.19 11.9871 0.0
11.864 0.556 -1.622 0.23 11.9873 0.0
11.879 0.519 -1.624 0.41 12.0007 0.0
11.865 0.481 -1.622 0.2 11.985 0.0
11.872 0.463 -1.623 0.26 11.9914 0.0
11.865 0.425 -1.621 0.24 11.9828 0.0
11.87 0.388 -1.622 0.42 11.9866 0.0
11.836 0.35 -1.617 0.19 11.9511 0.0
11.857 0.313 -1.62 0.26 11.9712 0.0
11.842 0.275 -1.617 0.29 11.9551 0.0
11.835 0.238 -1.616 0.3 11.9472 0.0
11.836 0.182 -1.616 0.3 11.9472 0.0
0.0 0.0 0.0 0.0 0.0 0.0
11.828 0.145 -1.615 0.29 11.9386 0.0
11.829 0.108 -1.615 0.32 11.9392 0.0
11.821 0.071 -1.613 0.29 11.9308 0.0
11.817 0.034 -1.613 0.27 11.9266 0.0
11.833 -0.004 -1.615 0.3 11.9427 0.0
11.839 -0.059 -1.616 0.32 11.9489 0.0
11.825 -0.096 -1.614 0.3 11.935 0.0
11.838 -0.134 -1.616 0.29 11.9485 0.0
11.832 -0.171 -1.615 0.29 11.9429 0.0
11.829 -0.208 -1.615 0.32 11.9405 0.0
11.831 -0.245 -1.615 0.31 11.9432 0.0
11.834 -0.283 -1.616 0.28 11.9472 0.0
11.845 -0.301 -1.618 0.32 11.9588 0.0
11.826 -0.338 -1.615 0.28 11.9406 0.0
11.831 -0.375 -1.616 0.33 11.9467 0.0
11.824 -0.412 -1.615 0.27 11.9409 0.0
11.831 -0.45 -1.616 0.27 11.9493 0.0
11.835 -0.487 -1.617 0.33 11.9549 0.0
