6.244 -1.051 -1.654 0.21 6.5443 4
6.237 -1.07 -1.652 0.23 6.5402 4
6.242 -1.091 -1.655 0.21 6.54919 4
6.223 -1.107 -1.65 0.26 6.53251 4
6.214 -1.136 -1.649 0.26 6.52867 4
6.22 -1.157 -1.652 0.2 6.53882 4
6.207 -1.175 -1.649 0.25 6.52891 4
0 0 0 0 0 0
6.21 -1.196 -1.651 0.25 6.53608 4
6.209 -1.216 -1.652 0.25 6.53907 4
6.205 -1.235 -1.652 0.27 6.53883 4
6.199 -1.255 -1.651 0.21 6.5367 4
6.202 -1.286 -1.654 0.27 6.54632 4
6.191 -1.304 -1.652 0.27 6.53896 4
6.192 -1.324 -1.654 0.3 6.54443 4
6.199 -1.346 -1.657 0.27 6.55629 4
6.214 -1.37 -1.662 0.27 6.5767 4
6.189 -1.385 -1.656 0.27 6.55471 4
6.188 -1.405 -1.657 0.29 6.55828 4
6.201 -1.418 -1.662 0.27 6.5746 4
6.215 -1.442 -1.667 0.3 6.59428 4
6.218 -1.463 -1.669 0.3 6.60223 4
6.215 -1.483 -1.67 0.31 6.60412 4
6.218 -1.505 -1.672 0.28 6.61242 4
6.21 -1.523 -1.671 0.3 6.60877 4
6.199 -1.552 -1.67 0.29 6.60494 4
6.196 -1.572 -1.67 0.3 6.60685 4
6.187 -1.59 -1.669 0.29 6.60247 4
0 0 0 0 0 0
6.15 -1.601 -1.66 0.31 6.5682 4
6.099 -1.608 -1.647 0.25 6.5189 4
6.042 -1.613 -1.631 0.29 6.46279 4
5.994 -1.62 -1.619 0.3 6.41667 4
5.882 -1.619 -1.589 0.28 6.30429 4
5.829 -1.624 -1.575 0.29 6.25262 4
5.778 -1.629 -1.561 0.3 6.20287 4
5.732 -1.636 -1.549 0.32 6.15887 4
5.712 -1.649 -1.545 0.24 6.14273 4
5.694 -1.663 -1.541 0.23 6.12878 4
5.688 -1.681 -1.541 0.27 6.12811 4
5.684 -1.69 -1.541 0.19 6.12688 4
5.679 -1.708 -1.541 0.24 6.12723 4
5.679 -1.727 -1.542 0.25 6.13281 4
5.677 -1.746 -1.543 0.21 6.13659 4
5.671 -1.764 -1.543 0.24 6.13619 4
5.721 -1.799 -1.56 0.33 6.19676 4
5.727 -1.831 -1.564 0.33 6.21266 4
5.729 -1.851 -1.566 0.3 6.22093 4
5.739 -1.875 -1.571 0.29 6.23857 4
5.73 -1.892 -1.57 0.33 6.23518 4
5.715 -1.906 -1.567 0.26 6.22491 4
5.663 -1.909 -1.554 0.29 6.17485 4
0 0 0 0 0 0
5.683 -1.946 -1.562 0.49 6.20671 4
5.65 -1.954 -1.554 0.26 6.17702 4
5.62 -1.963 -1.547 0.32 6.15069 4
5.61 -1.98 -1.546 0.4 6.14676 4
5.587 -1.991 -1.541 0.26 6.12808 4
5.65 -2.034 -1.562 0.32 6.2048 4
5.631 -2.047 -1.558 0.2 6.19078 4
5.62 -2.053 -1.556 0.23 6.18226 4
5.601 -2.066 -1.552 0.32 6.16833 4
5.597 -2.084 -1.553 0.28 6.171 4
5.642 -2.122 -1.568 0.3 6.22846 4
5.648 -2.144 -1.572 0.23 6.24242 4
5.609 -2.15 -1.562 0.34 6.20671 4
5.591 -2.163 -1.559 0.3 6.19422 4
5.569 -2.174 -1.554 0.24 6.17697 4
5.59 -2.213 -1.564 0.26 6.21221 4
5.569 -2.225 -1.56 0.21 6.19661 4
5.569 -2.245 -1.562 0.22 6.20432 4
5.619 -2.286 -1.579 0.3 6.26835 4
5.66 -2.324 -1.594 0.19 6.32277 4
5.676 -2.351 -1.601 0.29 6.34881 4
5.693 -2.369 -1.607 0.25 6.37219 4
5.673 -2.382 -1.603 0.24 6.35818 4
5.615 -2.378 -1.588 0.41 6.30118 4
5.664 -2.42 -1.605 0.33 6.36501 4
5.652 -2.436 -1.604 0.36 6.36019 4
5.625 -2.445 -1.598 0.24 6.33816 4
5.621 -2.465 -1.599 0.27 6.34261 4
5.654 -2.49 -1.61 0.3 6.38435 4
5.62 -2.496 -1.602 0.29 6.35459 4
5.63 -2.521 -1.608 0.28 6.37479 4
5.606 -2.532 -1.603 0.37 6.35672 4
5.593 -2.547 -1.601 0.26 6.35075 4
5.581 -2.563 -1.6 0.33 6.34638 4
5.587 -2.587 -1.604 0.29 6.36239 4
5.601 -2.626 -1.613 0.18 6.39287 4
5.549 -2.622 -1.599 0.2 6.34217 4
5.491 -2.616 -1.583 0.21 6.28494 4
5.439 -2.612 -1.57 0.3 6.23459 4
5.467 -2.647 -1.581 0.2 6.27648 4
5.459 -2.664 -1.581 0.22 6.27671 4
5.458 -2.674 -1.582 0.2 6.28035 4
5.405 -2.669 -1.568 0.23 6.22866 4
5.383 -2.679 -1.564 0.2 6.21288 4
5.328 -2.672 -1.549 0.22 6.15846 4
5.299 -2.679 -1.543 0.2 6.13492 4
5.26 -2.679 -1.533 0.23 6.09875 4
5.226 -2.683 -1.525 0.18 6.0692 4
5.146 -2.652 -1.501 0.09 5.98059 4
5.088 -2.642 -1.486 0.18 5.92251 4
5.056 -2.645 -1.478 0.16 5.89437 4
5.029 -2.651 -1.472 0.14 5.87243 4
4.995 -2.653 -1.464 0.05 5.84224 4
4.979 -2.664 -1.461 0 5.83283 4
0 0 0 0 0 0
5.496 -3 -1.634 0 6.47116 4
5.498 -3.024 -1.637 0.3 6.48478 4
5.503 -3.049 -1.642 0.3 6.50197 4
5.501 -3.07 -1.644 0.24 6.51066 4
5.484 -3.084 -1.642 0.39 6.50242 4
0 0 0 0 0 0
5.488 -3.109 -1.647 0.28 6.51894 4
5.465 -3.13 -1.644 0.27 6.50891 4
5.485 -3.164 -1.654 0.25 6.5446 4
5.478 -3.184 -1.655 0.23 6.54869 4
5.44 -3.184 -1.645 0.31 6.51441 4
5.45 -3.213 -1.652 0.14 6.53873 4
5.445 -3.233 -1.654 0.26 6.54492 4
5.382 -3.218 -1.636 0.18 6.48058 4
5.37 -3.223 -1.634 0.05 6.4726 4
5.362 -3.241 -1.635 0.19 6.47521 4
5.374 -3.272 -1.642 0.14 6.50246 4
5.344 -3.276 -1.636 0.19 6.47819 4
5.324 -3.287 -1.632 0.27 6.46628 4
5.311 -3.302 -1.631 0.25 6.46298 4
5.295 -3.315 -1.63 0.26 6.45625 4
5.281 -3.341 -1.63 0.25 6.45818 4
5.276 -3.361 -1.632 0.27 6.46498 4
5.263 -3.376 -1.631 0.19 6.46194 4
5.256 -3.395 -1.632 0.25 6.46645 4
5.236 -3.405 -1.629 0.27 6.45472 4
5.231 -3.426 -1.631 0.2 6.46228 4
5.225 -3.445 -1.633 0.24 6.46802 4
5.217 -3.451 -1.632 0.28 6.46451 4
5.212 -3.472 -1.634 0.22 6.47222 4
5.209 -3.494 -1.637 0.29 6.4824 4
5.195 -3.508 -1.636 0.3 6.47847 4
5.198 -3.534 -1.641 0.3 6.49625 4
5.192 -3.554 -1.642 0.3 6.50261 4
5.187 -3.574 -1.644 0.31 6.51008 4
5.182 -3.583 -1.644 0.3 6.51105 4
5.186 -3.61 -1.65 0.3 6.53063 4
5.17 -3.623 -1.648 0.41 6.52464 4
5.149 -3.632 -1.645 0.22 6.51227 4
5.149 -3.656 -1.649 0.27 6.52669 4
5.148 -3.68 -1.652 0.34 6.54014 4
5.11 -3.677 -1.643 0.24 6.5063 4
5.11 -3.714 -1.649 0.34 6.52879 4
5.089 -3.723 -1.646 0.18 6.51675 4
5.074 -3.737 -1.645 0.29 6.51281 4
5.005 -3.71 -1.625 0.19 6.43854 4
5.012 -3.74 -1.631 0.11 6.46281 4
5.029 -3.777 -1.642 0.23 6.50021 4
5.01 -3.775 -1.637 0.29 6.48309 4
4.982 -3.779 -1.631 0.19 6.4623 4
4.996 -3.814 -1.641 0.27 6.49611 4
4.998 -3.841 -1.645 0.32 6.51455 4
4.943 -3.823 -1.63 0.22 6.45798 4
4.931 -3.839 -1.63 0.27 6.4583 4
4.939 -3.87 -1.637 0.28 6.48463 4
4.921 -3.868 -1.633 0.37 6.46872 4
4.919 -3.892 -1.637 0.2 6.48259 4
4.895 -3.898 -1.632 0.29 6.46675 4
4.893 -3.921 -1.636 0.27 6.48014 4
4.857 -3.917 -1.628 0.24 6.44854 4
4.833 -3.923 -1.623 0.29 6.43288 4
4.808 -3.928 -1.619 0.18 6.41617 4
4.812 -3.969 -1.627 0.26 6.44635 4
4.8 -3.984 -1.627 0.27 6.44666 4
4.758 -3.975 -1.616 0.26 6.40708 4
4.774 -4.014 -1.627 0.24 6.44596 4
4.781 -4.046 -1.634 0.23 6.47287 4
4.77 -4.062 -1.635 0.2 6.47503 4
4.728 -4.052 -1.624 0.3 6.43507 4
4.708 -4.048 -1.619 0.18 6.4166 4
4.714 -4.079 -1.626 0.21 6.44235 4
4.649 -4.048 -1.607 0.23 6.3704 4
4.642 -4.068 -1.609 0.21 6.37853 4
4.63 -4.082 -1.609 0.23 6.37875 4
4.602 -4.084 -1.603 0.23 6.35823 4
4.545 -4.059 -1.587 0.21 6.29691 4
4.537 -4.064 -1.586 0.27 6.29411 4
4.523 -4.077 -1.586 0.21 6.29244 4
4.49 -4.073 -1.578 0.14 6.26414 4
4.497 -4.106 -1.586 0.2 6.29267 4
4.509 -4.142 -1.595 0.22 6.32703 4
4.486 -4.147 -1.591 0.26 6.31293 4
4.456 -4.159 -1.587 0.26 6.29855 4
4.428 -4.158 -1.581 0.27 6.2766 4
4.399 -4.157 -1.575 0.27 6.254 4
4.374 -4.159 -1.57 0.27 6.23651 4
4.348 -4.161 -1.566 0.27 6.21863 4
4.313 -4.153 -1.557 0.25 6.18657 4
4.294 -4.161 -1.555 0.27 6.17822 4
4.273 -4.153 -1.549 0.27 6.15673 4
4.25 -4.157 -1.545 0.27 6.14249 4
4.222 -4.156 -1.539 0.26 6.12096 4
4.194 -4.154 -1.533 0.27 6.09881 4
4.171 -4.157 -1.529 0.27 6.08406 4
4.383 4.357 -1.672 0.24 6.40232 4
4.403 4.35 -1.675 0.22 6.41206 4
0 0 0 0 0 0
4.418 4.337 -1.675 0.28 6.41357 4
4.436 4.327 -1.677 0.3 6.41976 4
4.447 4.311 -1.676 0.31 6.41635 4
4.455 4.291 -1.673 0.3 6.4077 4
4.478 4.273 -1.675 0.29 6.41223 4
4.495 4.263 -1.676 0.29 6.41772 4
4.496 4.237 -1.671 0.27 6.39988 4
4.494 4.208 -1.665 0.3 6.37774 4
4.514 4.201 -1.668 0.3 6.38802 4
4.527 4.187 -1.668 0.31 6.38803 4
4.527 4.173 -1.665 0.29 6.37808 4
4.55 4.168 -1.669 0.31 6.39221 4
4.56 4.151 -1.668 0.27 6.38801 4
4.556 4.121 -1.661 0.31 6.36386 4
4.576 4.113 -1.664 0.34 6.37381 4
4.592 4.101 -1.665 0.28 6.37784 4
4.598 4.08 -1.662 0.29 6.36791 4
4.615 4.057 -1.662 0.29 6.36551 4
4.622 4.038 -1.66 0.29 6.35798 4
4.644 4.031 -1.663 0.29 6.37034 4
0 0 0 0 0 0
4.652 4.012 -1.661 0.28 6.36366 4
4.666 3.999 -1.662 0.32 6.36599 4
4.681 3.987 -1.663 0.28 6.36973 4
4.69 3.968 -1.661 0.3 6.36397 4
4.701 3.94 -1.658 0.28 6.35389 4
4.722 3.933 -1.662 0.31 6.36616 4
4.726 3.911 -1.658 0.29 6.35452 4
4.757 3.912 -1.666 0.32 6.38031 4
4.753 3.883 -1.66 0.28 6.35801 4
4.771 3.873 -1.662 0.28 6.36591 4
4.78 3.868 -1.663 0.32 6.36988 4
4.792 3.853 -1.663 0.27 6.36981 4
4.801 3.836 -1.662 0.29 6.36606 4
4.825 3.83 -1.666 0.28 6.38162 4
4.831 3.81 -1.664 0.29 6.37366 4
4.834 3.788 -1.661 0.29 6.36203 4
4.861 3.772 -1.664 0.3 6.37387 4
4.862 3.748 -1.66 0.31 6.35941 4
4.894 3.748 -1.667 0.29 6.38574 4
4.895 3.725 -1.663 0.29 6.37199 4
4.899 3.704 -1.661 0.28 6.36229 4
0 0 0 0 0 0
4.918 3.694 -1.663 0.3 6.37165 4
4.931 3.667 -1.662 0.28 6.36584 4
4.95 3.658 -1.665 0.3 6.37618 4
4.959 3.64 -1.663 0.31 6.37235 4
4.967 3.622 -1.662 0.28 6.36806 4
4.988 3.613 -1.666 0.3 6.3804 4
4.99 3.591 -1.662 0.26 6.36849 4
4.988 3.566 -1.658 0.32 6.35181 4
5.017 3.562 -1.664 0.29 6.37393 4
5.019 3.552 -1.663 0.3 6.36967 4
5.026 3.533 -1.661 0.29 6.36409 4
5.046 3.524 -1.665 0.26 6.37596 4
5.045 3.499 -1.66 0.28 6.36008 4
5.059 3.486 -1.661 0.29 6.36432 4
5.071 3.471 -1.662 0.3 6.36593 4
5.081 3.454 -1.661 0.27 6.3644 4
5.098 3.431 -1.662 0.27 6.36582 4
5.108 3.414 -1.661 0.25 6.36443 4
5.123 3.401 -1.663 0.32 6.37005 4
0 0 0 0 0 0
5.137 3.387 -1.664 0.29 6.37412 4
5.149 3.372 -1.665 0.29 6.37611 4
5.156 3.354 -1.663 0.3 6.37175 4
5.158 3.32 -1.658 0.29 6.35424 4
5.162 3.299 -1.656 0.29 6.34602 4
5.178 3.287 -1.658 0.32 6.35335 4
5.202 3.279 -1.663 0.26 6.3701 4
5.199 3.255 -1.658 0.3 6.35402 4
5.222 3.247 -1.663 0.27 6.37008 4
5.223 3.224 -1.66 0.3 6.35842 4
5.228 3.216 -1.66 0.28 6.35848 4
5.251 3.208 -1.664 0.29 6.37441 4
5.244 3.181 -1.658 0.29 6.35352 4
5.253 3.163 -1.658 0.29 6.35197 4
5.271 3.152 -1.661 0.29 6.36219 4
5.284 3.137 -1.662 0.28 6.36582 4
5.296 3.11 -1.661 0.29 6.36228 4
5.299 3.09 -1.658 0.29 6.35425 4
5.318 3.079 -1.662 0.29 6.36582 4
5.323 3.059 -1.66 0.28 6.35983 4
5.339 3.047 -1.662 0.31 6.368 4
0 0 0 0 0 0
5.337 3.023 -1.658 0.28 6.35382 4
5.348 2.996 -1.657 0.3 6.35002 4
5.364 2.983 -1.66 0.27 6.35817 4
5.357 2.957 -1.654 0.32 6.33853 4
5.374 2.945 -1.657 0.29 6.34811 4
5.385 2.929 -1.657 0.31 6.35003 4
5.393 2.911 -1.657 0.32 6.34854 4
5.398 2.892 -1.656 0.28 6.34385 4
5.406 2.885 -1.657 0.27 6.34773 4
5.409 2.865 -1.655 0.34 6.3407 4
5.419 2.849 -1.655 0.27 6.34203 4
5.428 2.831 -1.655 0.3 6.34167 4
5.452 2.822 -1.66 0.3 6.35953 4
5.448 2.798 -1.656 0.29 6.34443 4
5.464 2.774 -1.657 0.3 6.34791 4
5.468 2.754 -1.655 0.3 6.34213 4
5.481 2.74 -1.657 0.29 6.3478 4
5.49 2.723 -1.657 0.26 6.34827 4
5.485 2.699 -1.652 0.29 6.33237 4
5.495 2.682 -1.653 0.33 6.33408 4
0 0 0 0 0 0
5.51 2.668 -1.655 0.32 6.34171 4
5.513 2.648 -1.653 0.27 6.33542 4
5.538 2.628 -1.657 0.29 6.34992 4
5.544 2.61 -1.657 0.3 6.34773 4
5.551 2.592 -1.656 0.32 6.34621 4
5.55 2.57 -1.653 0.29 6.3356 4
5.56 2.554 -1.654 0.28 6.33816 4
5.573 2.538 -1.656 0.3 6.34367 4
5.57 2.527 -1.653 0.31 6.33585 4
5.582 2.511 -1.655 0.27 6.34057 4
5.59 2.493 -1.655 0.29 6.34052 4
5.606 2.479 -1.657 0.25 6.34967 4
5.595 2.453 -1.651 0.32 6.32827 4
5.608 2.438 -1.653 0.3 6.3345 4
5.61 2.408 -1.65 0.28 6.32401 4
5.628 2.395 -1.653 0.28 6.33584 4
5.641 2.379 -1.655 0.3 6.34189 4
5.654 2.364 -1.657 0.29 6.34837 4
5.647 2.34 -1.652 0.29 6.33193 4
5.672 2.33 -1.658 0.3 6.35212 4
0 0 0 0 0 0
5.656 2.302 -1.651 0.29 6.32577 4
5.681 2.281 -1.655 0.32 6.34159 4
5.692 2.265 -1.656 0.27 6.34598 4
5.697 2.246 -1.656 0.26 6.34371 4
5.704 2.228 -1.656 0.32 6.34365 4
5.717 2.213 -1.657 0.28 6.35036 4
5.713 2.19 -1.654 0.29 6.338 4
5.718 2.182 -1.655 0.27 6.34001 4
5.723 2.163 -1.654 0.27 6.33775 4
5.726 2.144 -1.653 0.28 6.33374 4
5.731 2.125 -1.652 0.28 6.33159 4
5.747 2.111 -1.655 0.27 6.34219 4
5.755 2.093 -1.656 0.3 6.34374 4
5.755 2.073 -1.653 0.28 6.33638 4
5.766 2.046 -1.654 0.29 6.33787 4
5.783 2.032 -1.657 0.28 6.34963 4
5.779 2.01 -1.654 0.26 6.33819 4
5.78 1.99 -1.652 0.3 6.33227 4
5.791 1.974 -1.654 0.29 6.33783 4
5.805 1.958 -1.656 0.3 6.34619 4
0 0 0 0 0 0
5.807 1.938 -1.655 0.24 6.34162 4
5.822 1.913 -1.657 0.27 6.3483 4
5.813 1.89 -1.652 0.29 6.33184 4
5.823 1.873 -1.653 0.27 6.33623 4
5.823 1.853 -1.652 0.28 6.33009 4
5.833 1.835 -1.653 0.27 6.33431 4
5.846 1.819 -1.655 0.28 6.3422 4
5.839 1.807 -1.652 0.28 6.33153 4
5.849 1.79 -1.653 0.27 6.33619 4
5.849 1.77 -1.652 0.26 6.33031 4
5.862 1.754 -1.654 0.25 6.3384 4
5.858 1.733 -1.651 0.28 6.32813 4
5.874 1.718 -1.655 0.27 6.33991 4
5.867 1.695 -1.651 0.27 6.32618 4
5.877 1.668 -1.651 0.26 6.32828 4
5.882 1.65 -1.651 0.3 6.32821 4
5.902 1.635 -1.656 0.27 6.34422 4
5.899 1.615 -1.653 0.32 6.33552 4
5.917 1.6 -1.657 0.28 6.34953 4
5.919 1.58 -1.656 0.26 6.34612 4
5.905 1.566 -1.651 0.27 6.32828 4
5.919 1.55 -1.654 0.29 6.3382 4
5.922 1.531 -1.653 0.25 6.33612 4
5.923 1.512 -1.652 0.31 6.33223 4
5.937 1.495 -1.655 0.25 6.34208 4
5.927 1.473 -1.651 0.27 6.32652 4
5.933 1.455 -1.651 0.28 6.32798 4
5.936 1.436 -1.651 0.28 6.32645 4
5.942 1.427 -1.652 0.27 6.33031 4
5.942 1.408 -1.651 0.29 6.32579 4
5.945 1.389 -1.65 0.32 6.32415 4
5.964 1.373 -1.655 0.26 6.33983 4
5.954 1.351 -1.65 0.28 6.32438 4
5.954 1.332 -1.649 0.3 6.32009 4
5.968 1.305 -1.651 0.27 6.32818 4
5.972 1.287 -1.651 0.25 6.32827 4
5.961 1.264 -1.647 0.43 6.3122 4
5.968 1.247 -1.648 0.42 6.31569 4
5.972 1.228 -1.648 0.33 6.31575 4
5.974 1.209 -1.647 0.36 6.31371 4
5.988 1.192 -1.65 0.36 6.32452 4
5.986 1.182 -1.649 0.36 6.32048 4
5.986 1.162 -1.648 0.35 6.31651 4
6.004 1.146 -1.652 0.18 6.3317 4
6.017 1.129 -1.655 0.25 6.34176 4
6.004 1.107 -1.65 0.25 6.32424 4
6.02 1.091 -1.654 0.29 6.3377 4
6.005 1.068 -1.648 0.17 6.31796 4
6.02 1.061 -1.652 0.25 6.33208 4
6.033 1.044 -1.655 0.27 6.3424 4
6.032 1.024 -1.654 0.2 6.33793 4
6.031 1.005 -1.653 0.24 6.33367 4
6.046 0.988 -1.656 0.28 6.34607 4
6.032 0.966 -1.651 0.16 6.32803 4
6.044 0.948 -1.654 0.21 6.33754 4
6.062 0.922 -1.658 0.19 6.35192 4
6.048 0.9 -1.653 0.23 6.33409 4
6.064 0.883 -1.657 0.2 6.34803 4
6.063 0.864 -1.656 0.25 6.34419 4
6.069 0.845 -1.657 0.19 6.34763 4
6.063 0.825 -1.654 0.23 6.33848 4
6.082 0.808 -1.659 0.18 6.35577 4
6.068 0.797 -1.655 0.23 6.33994 4
6.076 0.778 -1.656 0.18 6.3455 4
6.083 0.76 -1.657 0.23 6.35029 4
6.087 0.741 -1.658 0.18 6.35213 4
6.087 0.721 -1.657 0.23 6.34957 4
6.088 0.702 -1.657 0.18 6.3484 4
6.086 0.682 -1.656 0.23 6.34404 4
6.097 0.674 -1.658 0.19 6.35426 4
6.095 0.654 -1.657 0.22 6.34999 4
6.099 0.635 -1.658 0.18 6.35216 4
6.101 0.616 -1.658 0.12 6.35221 4
6.105 0.597 -1.658 0.19 6.35424 4
6.099 0.577 -1.656 0.23 6.34611 4
6.098 0.548 -1.655 0.24 6.34231 4
6.096 0.529 -1.654 0.2 6.33852 4
6.097 0.51 -1.654 0.25 6.33792 4
6.103 0.491 -1.655 0.2 6.34245 4
6.094 0.471 -1.652 0.22 6.33149 4
6.109 0.453 -1.656 0.25 6.34566 4
6.111 0.434 -1.656 0.21 6.34626 4
6.1 0.423 -1.653 0.23 6.33414 4
6.101 0.404 -1.653 0.26 6.33386 4
6.099 0.384 -1.652 0.19 6.33043 4
6.104 0.366 -1.653 0.25 6.33444 4
6.114 0.347 -1.656 0.25 6.3438 4
6.104 0.327 -1.652 0.27 6.33205 4
6.107 0.308 -1.653 0.26 6.33425 4
6.1 0.298 -1.651 0.25 6.3265 4
6.102 0.279 -1.651 0.29 6.32756 4
6.098 0.26 -1.649 0.17 6.32237 4
6.112 0.241 -1.653 0.27 6.33617 4
6.101 0.221 -1.65 0.29 6.32404 4
6.104 0.202 -1.651 0.27 6.32656 4
6.1 0.183 -1.649 0.25 6.3216 4
6.103 0.154 -1.65 0.25 6.32399 4
6.119 0.135 -1.655 0.3 6.3403 4
6.096 0.116 -1.648 0.18 6.3159 4
6.116 0.097 -1.653 0.27 6.33619 4
6.106 0.078 -1.651 0.27 6.32575 4
6.109 0.058 -1.651 0.26 6.32843 4
6.116 0.039 -1.653 0.27 6.33557 4
6.109 0.03 -1.651 0.27 6.32824 4
6.113 0.01 -1.652 0.3 6.3323 4
6.118 -0.009 -1.654 0.27 6.33764 4
6.113 -0.028 -1.652 0.26 6.33235 4
6.109 -0.047 -1.651 0.28 6.32834 4
6.114 -0.066 -1.653 0.29 6.33386 4
6.116 -0.086 -1.653 0.26 6.33603 4
6.114 -0.105 -1.653 0.27 6.33438 4
6.104 -0.114 -1.65 0.28 6.32411 4
6.111 -0.134 -1.652 0.27 6.33178 4
6.113 -0.153 -1.653 0.28 6.3344 4
6.112 -0.172 -1.653 0.27 6.33392 4
6.112 -0.191 -1.653 0.29 6.33446 4
6.107 -0.21 -1.652 0.28 6.32998 4
6.116 -0.239 -1.655 0.29 6.34047 4
6.115 -0.259 -1.655 0.28 6.34029 4
6.114 -0.278 -1.655 0.27 6.34013 4
6.123 -0.297 -1.657 0.27 6.3502 4
6.12 -0.317 -1.657 0.25 6.34827 4
6.102 -0.335 -1.652 0.27 6.33054 4
6.102 -0.354 -1.652 0.25 6.33157 4
6.106 -0.364 -1.653 0.3 6.33626 4
6.093 -0.383 -1.65 0.19 6.32407 4
6.103 -0.402 -1.653 0.27 6.33566 4
6.096 -0.421 -1.652 0.29 6.32989 4
6.101 -0.441 -1.653 0.26 6.33633 4
6.093 -0.46 -1.652 0.27 6.32972 4
6.103 -0.48 -1.655 0.26 6.34161 4
6.091 -0.488 -1.652 0.27 6.32989 4
6.092 -0.508 -1.652 0.25 6.33243 4
6.092 -0.527 -1.653 0.27 6.33424 4
6.084 -0.545 -1.651 0.21 6.32755 4
6.098 -0.566 -1.656 0.23 6.34415 4
6.098 -0.585 -1.656 0.27 6.34588 4
6.108 -0.605 -1.66 0.23 6.3584 4
6.088 -0.633 -1.655 0.19 6.34062 4
6.091 -0.652 -1.656 0.23 6.34569 4
6.089 -0.671 -1.656 0.25 6.34575 4
6.079 -0.69 -1.654 0.2 6.33767 4
6.073 -0.708 -1.653 0.21 6.33364 4
6.094 -0.73 -1.66 0.11 6.35809 4
6.08 -0.748 -1.656 0.22 6.34573 4
6.083 -0.758 -1.657 0.26 6.35005 4
6.073 -0.776 -1.655 0.17 6.34212 4
6.068 -0.795 -1.655 0.21 6.33969 4
6.068 -0.814 -1.655 0.12 6.3421 4
6.069 -0.834 -1.656 0.21 6.34592 4
6.072 -0.854 -1.658 0.25 6.35196 4
6.068 -0.872 -1.657 0.19 6.35033 4
6.068 -0.882 -1.658 0.25 6.35197 4
6.061 -0.901 -1.657 0.18 6.34769 4
6.068 -0.921 -1.66 0.26 6.35802 4
6.067 -0.94 -1.66 0.18 6.35985 4
6.045 -0.957 -1.655 0.24 6.3401 4
6.059 -0.978 -1.66 0.26 6.35795 4
6.039 -0.995 -1.655 0.18 6.34023 4
6.046 -1.025 -1.658 0.27 6.35246 4
6.044 -1.044 -1.658 0.2 6.35365 4
6.041 -1.063 -1.658 0.23 6.35394 4
6.038 -1.082 -1.658 0.28 6.3543 4
6.036 -1.101 -1.659 0.18 6.35592 4
6.034 -1.121 -1.66 0.27 6.35778 4
6.029 -1.13 -1.658 0.26 6.35411 4
6.025 -1.148 -1.658 0.27 6.35354 4
6.02 -1.167 -1.658 0.27 6.35226 4
6.024 -1.187 -1.66 0.29 6.36028 4
6.018 -1.206 -1.66 0.29 6.35817 4
6.025 -1.227 -1.663 0.24 6.36959 4
6.001 -1.242 -1.657 0.28 6.34824 4
6.003 -1.262 -1.658 0.29 6.35434 4
6.001 -1.271 -1.658 0.29 6.35424 4
6.006 -1.292 -1.661 0.3 6.36398 4
6.019 -1.315 -1.666 0.29 6.38225 4
6.011 -1.333 -1.665 0.27 6.37818 4
5.994 -1.349 -1.661 0.3 6.36449 4
6.014 -1.373 -1.668 0.28 6.39027 4
6 -1.4 -1.666 0.3 6.38244 4
6.014 -1.423 -1.672 0.27 6.40224 4
6.021 -1.444 -1.675 0.33 6.4143 4
6.018 -1.464 -1.676 0.32 6.41628 4
6.013 -1.482 -1.676 0.29 6.41572 4
6.016 -1.503 -1.678 0.31 6.42394 4
6.01 -1.512 -1.677 0.29 6.42017 4
6.003 -1.53 -1.676 0.3 6.41762 4
5.997 -1.549 -1.676 0.29 6.41657 4
5.984 -1.565 -1.673 0.29 6.40753 4
5.987 -1.586 -1.676 0.33 6.41627 4
5.956 -1.598 -1.668 0.38 6.38825 4
5.874 -1.606 -1.646 0.32 6.30812 4
0 0 0 0 0 0
5.815 -1.61 -1.629 0.29 6.2498 4
5.751 -1.612 -1.612 0.29 6.18636 4
5.707 -1.619 -1.6 0.27 6.14419 4
5.661 -1.626 -1.588 0.29 6.10021 4
5.606 -1.629 -1.573 0.32 6.04609 4
5.558 -1.634 -1.56 0.33 5.99958 4
5.527 -1.644 -1.552 0.27 5.97153 4
5.518 -1.67 -1.551 0.26 5.97016 4
5.505 -1.685 -1.549 0.26 5.96185 4
5.496 -1.701 -1.548 0.25 5.95783 4
5.489 -1.718 -1.548 0.27 5.95625 4
5.487 -1.736 -1.549 0.18 5.95989 4
5.493 -1.757 -1.552 0.25 5.97234 4
5.503 -1.77 -1.556 0.27 5.9864 4
5.527 -1.796 -1.565 0.27 6.01852 4
5.51 -1.81 -1.561 0.43 6.00607 4
5.513 -1.83 -1.564 0.27 6.01566 4
5.515 -1.85 -1.566 0.32 6.02412 4
5.509 -1.867 -1.566 0.33 6.02388 4
5.492 -1.881 -1.563 0.32 6.01192 4
5.457 -1.888 -1.554 0.36 5.97983 4
5.458 -1.898 -1.555 0.32 5.98416 4
5.454 -1.916 -1.556 0.29 5.98651 4
5.477 -1.943 -1.565 0.3 6.01847 4
5.481 -1.964 -1.568 0.37 6.0297 4
5.471 -1.98 -1.567 0.35 6.02559 4
5.429 -1.984 -1.556 0.28 5.98594 4
5.437 -2.007 -1.56 0.3 6.00188 4
5.431 -2.033 -1.561 0.37 6.00546 4
5.389 -2.037 -1.55 0.25 5.966 4
5.39 -2.057 -1.553 0.35 5.97454 4
5.376 -2.071 -1.55 0.2 5.96598 4
5.384 -2.093 -1.555 0.35 5.98215 4
5.427 -2.13 -1.57 0.38 6.03773 4
5.392 -2.126 -1.56 0.3 6.00226 4
5.364 -2.134 -1.554 0.36 5.97841 4
5.384 -2.162 -1.562 0.37 6.00846 4
5.391 -2.184 -1.566 0.25 6.02371 4
5.413 -2.213 -1.575 0.28 6.05628 4
5.454 -2.249 -1.59 0.35 6.11001 4
5.443 -2.265 -1.589 0.36 6.10585 4
5.445 -2.276 -1.591 0.19 6.11224 4
5.447 -2.296 -1.594 0.3 6.12228 4
5.47 -2.326 -1.603 0.27 6.15636 4
5.439 -2.334 -1.596 0.38 6.13005 4
5.48 -2.371 -1.611 0.28 6.18444 4
5.481 -2.392 -1.614 0.25 6.19419 4
5.498 -2.43 -1.623 0.38 6.22632 4
5.49 -2.447 -1.623 0.35 6.22592 4
5.488 -2.467 -1.624 0.32 6.2323 4
5.473 -2.481 -1.622 0.31 6.22414 4
5.405 -2.471 -1.603 0.17 6.15544 4
5.384 -2.482 -1.599 0.2 6.14041 4
5.39 -2.505 -1.603 0.12 6.15603 4
5.399 -2.53 -1.609 0.24 6.17568 4
5.38 -2.531 -1.604 0.27 6.15818 4
5.363 -2.544 -1.601 0.29 6.14792 4
5.36 -2.564 -1.603 0.21 6.15413 4
5.347 -2.578 -1.601 0.27 6.14815 4
5.306 -2.579 -1.59 0.2 6.11007 4
5.268 -2.581 -1.581 0.27 6.0756 4
5.236 -2.586 -1.573 0.26 6.04793 4
5.254 -2.605 -1.58 0.26 6.07346 4
5.245 -2.621 -1.58 0.26 6.07257 4
5.274 -2.656 -1.592 0.21 6.11587 4
5.257 -2.668 -1.589 0.12 6.10567 4
5.223 -2.672 -1.581 0.22 6.07609 4
5.189 -2.675 -1.573 0.26 6.04613 4
5.117 -2.669 -1.553 0.21 5.97654 4
5.077 -2.669 -1.543 0.25 5.93973 4
5.044 -2.672 -1.535 0.18 5.91082 4
5.008 -2.673 -1.526 0.23 5.87824 4
4.942 -2.658 -1.507 0.17 5.81028 4
4.884 -2.647 -1.491 0.1 5.75179 4
4.851 -2.649 -1.482 0.18 5.72239 4
4.819 -2.642 -1.473 0.15 5.6897 4
4.804 -2.653 -1.471 0.05 5.68161 4
4.784 -2.662 -1.467 0 5.66789 4
0 0 0 0 0 0
5.183 -2.924 -1.605 0 6.16355 4
5.231 -2.972 -1.624 0 6.23165 4
5.24 -2.999 -1.631 0 6.25394 4
5.224 -3.023 -1.63 0.11 6.25185 4
0 0 0 0 0 0
5.216 -3.04 -1.631 0.23 6.25367 4
5.222 -3.065 -1.636 0.25 6.27216 4
5.21 -3.081 -1.635 0.21 6.26976 4
5.216 -3.106 -1.64 0.25 6.28836 4
5.208 -3.134 -1.642 0.17 6.29614 4
5.206 -3.156 -1.645 0.25 6.30625 4
5.203 -3.176 -1.647 0.27 6.31433 4
5.201 -3.197 -1.65 0.27 6.32406 4
5.179 -3.207 -1.646 0.3 6.31001 4
5.202 -3.243 -1.657 0.31 6.35008 4
5.179 -3.251 -1.653 0.23 6.33431 4
5.163 -3.264 -1.651 0.26 6.32741 4
5.157 -3.272 -1.651 0.34 6.32664 4
5.146 -3.288 -1.651 0.29 6.32598 4
5.115 -3.29 -1.643 0.34 6.29974 4
5.103 -3.306 -1.643 0.28 6.29839 4
5.097 -3.325 -1.644 0.19 6.30379 4
5.074 -3.332 -1.64 0.3 6.28787 4
5.09 -3.377 -1.651 0.29 6.32756 4
5.077 -3.391 -1.65 0.32 6.32434 4
5.093 -3.425 -1.66 0.33 6.35806 4
5.066 -3.43 -1.654 0.29 6.33758 4
0 0 0 0 0 0
5.035 -3.432 -1.647 0.28 6.31209 4
5.027 -3.45 -1.648 0.32 6.31578 4
5.035 -3.479 -1.655 0.31 6.33985 4
5 -3.49 -1.648 0.25 6.31633 4
4.967 -3.49 -1.64 0.29 6.28815 4
4.953 -3.503 -1.639 0.33 6.28407 4
4.962 -3.533 -1.646 0.35 6.30974 4
4.987 -3.574 -1.659 0.27 6.35578 4
4.965 -3.582 -1.655 0.34 6.342 4
4.981 -3.606 -1.663 0.23 6.37018 4
4.97 -3.621 -1.663 0.33 6.37009 4
4.916 -3.607 -1.648 0.43 6.31612 4
4.902 -3.62 -1.647 0.25 6.31242 4
4.9 -3.642 -1.65 0.35 6.32429 4
4.893 -3.661 -1.652 0.36 6.33036 4
4.869 -3.667 -1.647 0.17 6.31401 4
4.824 -3.669 -1.637 0.34 6.27792 4
4.802 -3.676 -1.633 0.3 6.26409 4
0 0 0 0 0 0
4.804 -3.702 -1.638 0.27 6.28222 4
4.833 -3.748 -1.653 0.34 6.33544 4
4.803 -3.749 -1.647 0.26 6.31161 4
4.789 -3.762 -1.646 0.33 6.30845 4
4.769 -3.783 -1.645 0.28 6.30559 4
4.78 -3.816 -1.653 0.28 6.33582 4
4.766 -3.83 -1.653 0.21 6.33372 4
4.756 -3.846 -1.653 0.3 6.3359 4
4.768 -3.88 -1.662 0.31 6.36793 4
4.762 -3.9 -1.665 0.33 6.37643 4
4.725 -3.896 -1.656 0.25 6.34403 4
4.722 -3.905 -1.657 0.27 6.34759 4
4.67 -3.887 -1.642 0.24 6.29395 4
4.63 -3.879 -1.631 0.22 6.25649 4
4.629 -3.903 -1.636 0.25 6.27197 4
4.61 -3.911 -1.633 0.2 6.26217 4
4.603 -3.931 -1.635 0.25 6.27006 4
4.583 -3.939 -1.632 0.2 6.25964 4
4.556 -3.953 -1.629 0.21 6.24796 4
4.535 -3.96 -1.626 0.25 6.23632 4
0 0 0 0 0 0
4.515 -3.968 -1.623 0.26 6.2261 4
4.504 -3.983 -1.623 0.29 6.22772 4
4.5 -4.005 -1.627 0.29 6.23996 4
4.501 -4.03 -1.632 0.28 6.25806 4
4.494 -4.063 -1.637 0.29 6.27565 4
4.473 -4.07 -1.633 0.33 6.26413 4
4.445 -4.069 -1.627 0.32 6.24195 4
4.452 -4.101 -1.635 0.29 6.26991 4
4.456 -4.131 -1.642 0.33 6.29422 4
4.408 -4.112 -1.628 0.27 6.24415 4
4.357 -4.079 -1.61 0.2 6.18173 4
4.339 -4.087 -1.608 0.23 6.17383 4
4.336 -4.11 -1.612 0.24 6.18802 4
4.322 -4.122 -1.612 0.18 6.1862 4
4.3 -4.128 -1.608 0.24 6.17382 4
4.286 -4.14 -1.608 0.2 6.17212 4
4.265 -4.146 -1.604 0.24 6.16055 4
4.227 -4.148 -1.597 0.21 6.13383 4
4.211 -4.159 -1.596 0.28 6.13001 4
4.18 -4.154 -1.589 0.29 6.10353 4
0 0 0 0 0 0
4.241 4.22 -1.658 0.34 6.20834 4
4.26 4.212 -1.66 0.19 6.21644 4
4.272 4.211 -1.662 0.36 6.22453 4
4.277 4.189 -1.659 0.29 6.21231 4
4.293 4.178 -1.66 0.24 6.2162 4
4.307 4.166 -1.66 0.25 6.21783 4
4.315 4.147 -1.658 0.26 6.21014 4
4.322 4.129 -1.656 0.27 6.20247 4
4.339 4.119 -1.658 0.25 6.20822 4
4.347 4.113 -1.658 0.29 6.20984 4
4.349 4.089 -1.654 0.16 6.19431 4
4.369 4.082 -1.657 0.26 6.20456 4
4.38 4.067 -1.656 0.25 6.2022 4
4.388 4.049 -1.654 0.29 6.19554 4
4.39 4.025 -1.65 0.18 6.18023 4
4.425 4.032 -1.659 0.23 6.21208 4
4.421 4.003 -1.652 0.23 6.18857 4
4.445 3.987 -1.654 0.19 6.19596 4
4.469 3.983 -1.659 0.26 6.21197 4
4.475 3.963 -1.656 0.27 6.20269 4
4.484 3.946 -1.655 0.27 6.19808 4
4.489 3.926 -1.652 0.28 6.18819 4
4.5 3.91 -1.651 0.25 6.18578 4
4.512 3.908 -1.654 0.28 6.19406 4
4.52 3.89 -1.652 0.2 6.18802 4
4.537 3.88 -1.654 0.27 6.19471 4
4.544 3.862 -1.652 0.28 6.18806 4
4.553 3.845 -1.651 0.25 6.18382 4
4.571 3.836 -1.653 0.28 6.19204 4
4.591 3.827 -1.656 0.2 6.20206 4
4.591 3.815 -1.654 0.27 6.19413 4
4.597 3.796 -1.651 0.27 6.1861 4
4.613 3.785 -1.653 0.27 6.1918 4
4.618 3.765 -1.65 0.27 6.18253 4
4.643 3.761 -1.655 0.25 6.20013 4
4.655 3.746 -1.655 0.25 6.20005 4
4.67 3.734 -1.657 0.28 6.20462 4
4.672 3.712 -1.653 0.18 6.19184 4
4.682 3.684 -1.65 0.27 6.18187 4
4.703 3.677 -1.654 0.26 6.1947 4
4.713 3.661 -1.653 0.27 6.19255 4
4.73 3.651 -1.655 0.26 6.20014 4
4.748 3.64 -1.658 0.26 6.20823 4
4.758 3.624 -1.657 0.27 6.20625 4
4.763 3.617 -1.657 0.26 6.20601 4
4.773 3.601 -1.657 0.25 6.20438 4
4.775 3.579 -1.653 0.28 6.19211 4
4.779 3.558 -1.65 0.16 6.18229 4
4.802 3.552 -1.655 0.26 6.19798 4
4.817 3.539 -1.656 0.27 6.20245 4
4.818 3.517 -1.653 0.26 6.1899 4
4.832 3.515 -1.655 0.26 6.2002 4
4.844 3.501 -1.656 0.25 6.20191 4
4.849 3.482 -1.654 0.28 6.19458 4
4.863 3.469 -1.655 0.18 6.19853 4
4.874 3.453 -1.655 0.25 6.19823 4
4.882 3.436 -1.654 0.28 6.19482 4
4.896 3.412 -1.653 0.25 6.19233 4
4.899 3.391 -1.65 0.26 6.18236 4
4.925 3.386 -1.656 0.18 6.20185 4
4.933 3.369 -1.655 0.25 6.19868 4
4.927 3.342 -1.649 0.27 6.17766 4
4.952 3.336 -1.654 0.25 6.19572 4
4.956 3.317 -1.652 0.27 6.18818 4
4.954 3.304 -1.649 0.2 6.17881 4
4.98 3.298 -1.655 0.23 6.19808 4
4.984 3.279 -1.653 0.27 6.19068 4
4.993 3.262 -1.652 0.18 6.18868 4
5.014 3.253 -1.656 0.23 6.20198 4
5.021 3.236 -1.655 0.27 6.19848 4
5.025 3.216 -1.653 0.19 6.19077 4
5.03 3.186 -1.649 0.29 6.17824 4
5.032 3.165 -1.646 0.18 6.16827 4
0 0 0 0 0 0
5.076 3.17 -1.658 0.23 6.20996 4
5.057 3.136 -1.648 0.22 6.17444 4
5.079 3.128 -1.653 0.27 6.18975 4
5.079 3.107 -1.649 0.19 6.1781 4
5.092 3.093 -1.65 0.25 6.18204 4
5.095 3.062 -1.646 0.17 6.168 4
5.117 3.052 -1.65 0.23 6.1823 4
5.124 3.035 -1.65 0.27 6.17973 4
5.122 3.013 -1.646 0.2 6.16623 4
5.147 3.005 -1.651 0.25 6.18445 4
5.156 2.989 -1.651 0.28 6.18419 4
5.161 2.97 -1.649 0.16 6.17867 4
5.172 2.965 -1.651 0.26 6.186 4
5.173 2.944 -1.649 0.25 6.17627 4
5.185 2.93 -1.65 0.25 6.17994 4
5.2 2.917 -1.651 0.27 6.18665 4
5.192 2.891 -1.646 0.18 6.16637 4
5.213 2.881 -1.65 0.25 6.18046 4
5.226 2.857 -1.65 0.18 6.18029 4
5.237 2.841 -1.65 0.22 6.18223 4
5.244 2.824 -1.65 0.28 6.18037 4
0 0 0 0 0 0
5.248 2.804 -1.648 0.17 6.17413 4
5.257 2.788 -1.648 0.27 6.17454 4
5.264 2.771 -1.647 0.25 6.17258 4
5.272 2.743 -1.646 0.17 6.16663 4
5.308 2.74 -1.655 0.26 6.19851 4
5.294 2.712 -1.647 0.28 6.17203 4
5.302 2.696 -1.647 0.24 6.17189 4
5.313 2.68 -1.648 0.28 6.17465 4
5.319 2.662 -1.647 0.22 6.17176 4
5.331 2.647 -1.649 0.27 6.17619 4
5.333 2.638 -1.648 0.26 6.1738 4
5.336 2.619 -1.646 0.27 6.16777 4
5.336 2.598 -1.643 0.26 6.15808 4
5.367 2.592 -1.651 0.26 6.18457 4
5.363 2.569 -1.647 0.27 6.17042 4
5.372 2.553 -1.647 0.28 6.17161 4
5.375 2.534 -1.646 0.25 6.16612 4
5.382 2.506 -1.644 0.27 6.16025 4
5.4 2.494 -1.647 0.27 6.17192 4
5.401 2.474 -1.645 0.27 6.16421 4
0 0 0 0 0 0
5.407 2.456 -1.645 0.27 6.16227 4
5.415 2.439 -1.645 0.28 6.16255 4
5.424 2.413 -1.644 0.25 6.15996 4
5.437 2.398 -1.646 0.28 6.16609 4
5.445 2.381 -1.646 0.2 6.16656 4
5.445 2.361 -1.643 0.27 6.15807 4
5.456 2.345 -1.645 0.25 6.16222 4
5.47 2.331 -1.647 0.28 6.16985 4
5.471 2.311 -1.645 0.21 6.16268 4
5.492 2.3 -1.649 0.27 6.17829 4
5.485 2.287 -1.646 0.27 6.16643 4
5.489 2.268 -1.645 0.25 6.16271 4
5.51 2.256 -1.649 0.29 6.17809 4
5.501 2.233 -1.644 0.16 6.16036 4
5.522 2.221 -1.649 0.24 6.17613 4
5.526 2.202 -1.647 0.28 6.17236 4
5.515 2.178 -1.642 0.17 6.15265 4
5.546 2.16 -1.649 0.25 6.176 4
5.537 2.137 -1.643 0.25 6.15829 4
5.547 2.121 -1.645 0.27 6.16229 4
0 0 0 0 0 0
5.552 2.102 -1.644 0.2 6.16002 4
5.557 2.084 -1.643 0.25 6.15815 4
5.571 2.069 -1.646 0.24 6.16653 4
5.584 2.044 -1.647 0.19 6.17022 4
5.594 2.028 -1.648 0.26 6.17426 4
5.597 2.009 -1.647 0.23 6.1705 4
5.603 1.992 -1.647 0.27 6.17044 4
5.602 1.972 -1.645 0.2 6.16257 4
5.612 1.955 -1.646 0.23 6.16651 4
5.622 1.949 -1.648 0.27 6.17425 4
5.628 1.931 -1.648 0.2 6.17406 4
5.641 1.916 -1.65 0.23 6.18178 4
5.649 1.899 -1.651 0.26 6.18411 4
5.646 1.878 -1.648 0.19 6.17415 4
5.643 1.857 -1.645 0.23 6.16425 4
5.655 1.832 -1.646 0.21 6.16803 4
5.665 1.815 -1.647 0.22 6.17244 4
5.668 1.797 -1.647 0.28 6.16993 4
5.648 1.771 -1.639 0.16 6.14188 4
5.672 1.759 -1.645 0.24 6.16212 4
5.676 1.741 -1.644 0.25 6.16042 4
0 0 0 0 0 0
5.691 1.726 -1.647 0.2 6.17083 4
5.696 1.708 -1.647 0.24 6.17044 4
5.713 1.684 -1.65 0.19 6.18035 4
5.698 1.66 -1.643 0.27 6.1581 4
5.703 1.642 -1.643 0.25 6.15791 4
5.721 1.628 -1.647 0.28 6.17194 4
5.708 1.604 -1.642 0.17 6.15226 4
5.718 1.588 -1.643 0.21 6.15765 4
5.738 1.584 -1.649 0.12 6.1768 4
5.75 1.568 -1.651 0.2 6.18441 4
5.74 1.546 -1.646 0.23 6.16823 4
5.749 1.528 -1.647 0.21 6.17239 4
5.752 1.51 -1.647 0.24 6.17075 4
5.758 1.492 -1.647 0.25 6.17197 4
5.754 1.462 -1.644 0.23 6.16025 4
5.768 1.447 -1.647 0.27 6.17059 4
5.769 1.428 -1.646 0.18 6.16684 4
5.773 1.409 -1.646 0.25 6.16621 4
5.772 1.39 -1.644 0.25 6.16042 4
0 0 0 0 0 0
5.774 1.371 -1.643 0.2 6.15777 4
5.773 1.352 -1.642 0.24 6.15236 4
5.783 1.326 -1.643 0.2 6.15636 4
5.789 1.308 -1.643 0.25 6.15815 4
5.797 1.29 -1.645 0.27 6.16241 4
5.799 1.272 -1.644 0.2 6.16029 4
5.809 1.255 -1.646 0.37 6.16675 4
5.814 1.237 -1.646 0.44 6.16783 4
5.801 1.225 -1.642 0.3 6.1521 4
5.807 1.207 -1.642 0.32 6.15421 4
5.807 1.188 -1.641 0.31 6.15024 4
5.818 1.171 -1.643 0.37 6.15791 4
5.814 1.151 -1.641 0.31 6.14982 4
5.82 1.133 -1.642 0.22 6.15242 4
5.84 1.118 -1.647 0.2 6.16994 4
5.84 1.099 -1.646 0.25 6.16626 4
5.838 1.07 -1.643 0.25 6.15846 4
5.845 1.053 -1.645 0.18 6.1627 4
5.85 1.035 -1.645 0.24 6.16439 4
5.851 1.016 -1.645 0.18 6.16218 4
5.864 0.999 -1.647 0.23 6.17229 4
0 0 0 0 0 0
5.863 0.98 -1.646 0.18 6.16802 4
5.871 0.953 -1.647 0.22 6.17167 4
5.876 0.935 -1.648 0.24 6.17394 4
5.872 0.915 -1.646 0.16 6.1666 4
5.88 0.898 -1.647 0.2 6.17199 4
5.872 0.878 -1.644 0.17 6.16068 4
5.886 0.861 -1.647 0.05 6.17243 4
5.898 0.853 -1.651 0.16 6.18383 4
5.899 0.834 -1.65 0.1 6.18193 4
5.898 0.815 -1.649 0.21 6.17817 4
5.897 0.796 -1.648 0.18 6.17447 4
5.901 0.778 -1.649 0.1 6.17627 4
5.905 0.76 -1.649 0.21 6.17785 4
5.91 0.741 -1.65 0.18 6.18059 4
5.911 0.713 -1.649 0.18 6.17798 4
5.919 0.695 -1.651 0.16 6.18412 4
5.9 0.674 -1.645 0.05 6.162 4
5.906 0.656 -1.646 0.17 6.16608 4
5.908 0.638 -1.646 0.05 6.1661 4
5.908 0.619 -1.645 0.17 6.1639 4
5.913 0.61 -1.646 0.05 6.16806 4
5.905 0.591 -1.643 0.16 6.15774 4
5.911 0.572 -1.645 0.05 6.16223 4
5.932 0.555 -1.65 0.17 6.18216 4
5.928 0.536 -1.649 0.1 6.17638 4
5.928 0.518 -1.648 0.2 6.17458 4
5.918 0.498 -1.645 0.17 6.16253 4
5.917 0.479 -1.644 0.05 6.15979 4
5.933 0.471 -1.649 0.18 6.17588 4
5.925 0.452 -1.646 0.11 6.16598 4
5.925 0.433 -1.645 0.19 6.16434 4
5.934 0.415 -1.647 0.12 6.17229 4
5.939 0.397 -1.649 0.2 6.17645 4
5.94 0.378 -1.649 0.24 6.17622 4
5.934 0.359 -1.646 0.18 6.16851 4
5.926 0.33 -1.643 0.17 6.15839 4
5.919 0.311 -1.641 0.21 6.15014 4
5.933 0.293 -1.645 0.12 6.16379 4
5.938 0.275 -1.646 0.21 6.16805 4
5.931 0.256 -1.644 0.24 6.15995 4
5.926 0.237 -1.642 0.19 6.15384 4
5.925 0.228 -1.642 0.24 6.15254 4
5.922 0.209 -1.641 0.2 6.14871 4
5.93 0.191 -1.643 0.25 6.15636 4
5.929 0.172 -1.642 0.19 6.15457 4
5.933 0.153 -1.643 0.25 6.15819 4
5.949 0.135 -1.648 0.22 6.17452 4
5.94 0.116 -1.645 0.25 6.16466 4
5.94 0.107 -1.645 0.26 6.1645 4
5.948 0.088 -1.647 0.18 6.17244 4
5.933 0.069 -1.643 0.23 6.15668 4
5.937 0.051 -1.644 0.24 6.16063 4
5.939 0.032 -1.645 0.2 6.16269 4
5.948 0.013 -1.647 0.25 6.17183 4
5.941 -0.005 -1.645 0.26 6.16454 4
5.939 -0.033 -1.645 0.24 6.1627 4
5.956 -0.052 -1.65 0.28 6.18055 4
5.936 -0.07 -1.644 0.19 6.15985 4
5.932 -0.089 -1.643 0.23 6.15597 4
5.938 -0.108 -1.645 0.25 6.16259 4
5.941 -0.127 -1.646 0.21 6.16611 4
5.941 -0.145 -1.646 0.25 6.16651 4
5.948 -0.155 -1.648 0.26 6.17403 4
5.927 -0.173 -1.642 0.2 6.15268 4
5.934 -0.192 -1.644 0.25 6.16052 4
5.933 -0.21 -1.644 0.24 6.16014 4
5.942 -0.229 -1.647 0.27 6.17028 4
5.934 -0.248 -1.645 0.19 6.16278 4
5.937 -0.266 -1.646 0.25 6.16669 4
5.938 -0.276 -1.646 0.26 6.16809 4
5.926 -0.294 -1.643 0.18 6.15657 4
5.94 -0.313 -1.647 0.23 6.17205 4
5.943 -0.332 -1.649 0.25 6.17646 4
5.934 -0.35 -1.646 0.19 6.168 4
5.931 -0.369 -1.646 0.26 6.16622 4
5.918 -0.387 -1.642 0.18 6.15375 4
5.921 -0.406 -1.643 0.23 6.15813 4
5.911 -0.433 -1.641 0.18 6.14982 4
5.921 -0.452 -1.645 0.23 6.16186 4
5.931 -0.472 -1.648 0.26 6.17377 4
5.917 -0.49 -1.644 0.18 6.16066 4
5.915 -0.508 -1.644 0.21 6.1602 4
5.923 -0.528 -1.647 0.11 6.17036 4
5.916 -0.536 -1.645 0.2 6.1638 4
5.926 -0.556 -1.649 0.11 6.17623 4
5.915 -0.574 -1.646 0.19 6.16652 4
5.919 -0.593 -1.647 0.11 6.17242 4
5.915 -0.611 -1.647 0.2 6.17034 4
5.921 -0.631 -1.649 0.11 6.17864 4
5.926 -0.65 -1.651 0.19 6.18593 4
5.919 -0.659 -1.65 0.11 6.17991 4
5.908 -0.676 -1.647 0.18 6.17042 4
5.913 -0.696 -1.649 0.11 6.17796 4
5.907 -0.714 -1.648 0.18 6.17401 4
5.918 -0.734 -1.652 0.11 6.18794 4
5.929 -0.754 -1.656 0.18 6.20193 4
5.904 -0.77 -1.649 0.1 6.17813 4
5.897 -0.797 -1.648 0.17 6.1746 4
5.886 -0.815 -1.646 0.05 6.16592 4
5.903 -0.836 -1.651 0.18 6.18628 4
5.893 -0.853 -1.649 0.1 6.17853 4
5.903 -0.874 -1.653 0.2 6.19207 4
5.88 -0.889 -1.647 0.18 6.17068 4
5.898 -0.911 -1.653 0.1 6.19264 4
5.885 -0.918 -1.65 0.2 6.18049 4
5.884 -0.937 -1.65 0.16 6.18239 4
5.871 -0.954 -1.647 0.05 6.17182 4
5.87 -0.973 -1.648 0.16 6.1741 4
5.873 -0.992 -1.65 0.21 6.18051 4
5.879 -1.012 -1.653 0.17 6.19025 4
5.859 -1.028 -1.647 0.11 6.1723 4
5.867 -1.039 -1.65 0.2 6.18253 4
5.88 -1.06 -1.655 0.11 6.19976 4
5.854 -1.075 -1.649 0.18 6.17609 4
5.86 -1.095 -1.651 0.11 6.18582 4
5.849 -1.112 -1.649 0.21 6.17791 4
5.859 -1.133 -1.653 0.26 6.19225 4
5.852 -1.16 -1.653 0.23 6.19063 4
5.85 -1.179 -1.653 0.29 6.19233 4
5.854 -1.199 -1.655 0.16 6.20048 4
5.841 -1.215 -1.653 0.24 6.19079 4
5.84 -1.234 -1.654 0.25 6.19387 4
5.84 -1.253 -1.655 0.21 6.19795 4
5.833 -1.271 -1.654 0.26 6.19476 4
5.827 -1.279 -1.653 0.23 6.19049 4
5.825 -1.298 -1.653 0.28 6.19256 4
5.828 -1.318 -1.655 0.18 6.20014 4
5.818 -1.335 -1.654 0.23 6.19412 4
5.821 -1.355 -1.656 0.26 6.20181 4
5.813 -1.372 -1.655 0.19 6.19777 4
5.807 -1.39 -1.654 0.24 6.19589 4
5.827 -1.405 -1.661 0.29 6.21988 4
5.825 -1.423 -1.662 0.18 6.22236 4
5.845 -1.448 -1.669 0.24 6.2487 4
5.838 -1.466 -1.668 0.28 6.24609 4
5.839 -1.485 -1.67 0.28 6.25204 4
5.832 -1.503 -1.67 0.27 6.24981 4
5.828 -1.522 -1.67 0.29 6.25068 4
5.819 -1.539 -1.668 0.29 6.24592 4
5.816 -1.567 -1.67 0.29 6.25062 4
5.822 -1.589 -1.673 0.29 6.26255 4
5.796 -1.601 -1.667 0.27 6.23985 4
5.762 -1.611 -1.658 0.26 6.20846 4
5.69 -1.61 -1.637 0.27 6.13579 4
5.639 -1.615 -1.623 0.26 6.08611 4
5.596 -1.612 -1.61 0.27 6.04201 4
5.547 -1.616 -1.597 0.26 5.99425 4
5.496 -1.62 -1.582 0.25 5.94417 4
5.447 -1.624 -1.569 0.3 5.89652 4
5.405 -1.63 -1.557 0.19 5.85621 4
5.385 -1.651 -1.553 0.25 5.84259 4
0 0 0 0 0 0
5.345 -1.675 -1.544 0.23 5.81021 4
0 0 0 0 0 0
5.347 -1.695 -1.547 0.18 5.81865 4
5.331 -1.708 -1.543 0.23 5.80669 4
5.334 -1.728 -1.546 0.18 5.81615 4
5.32 -1.741 -1.543 0.23 5.8064 4
5.342 -1.777 -1.553 0.25 5.84008 4
5.368 -1.804 -1.562 0.24 5.87449 4
5.369 -1.823 -1.565 0.26 5.88207 4
5.372 -1.843 -1.568 0.29 5.89183 4
5.365 -1.86 -1.567 0.3 5.89053 4
5.355 -1.875 -1.566 0.33 5.88592 4
5.346 -1.891 -1.565 0.35 5.88259 4
5.355 -1.904 -1.569 0.28 5.89602 4
5.373 -1.929 -1.576 0.34 5.92233 4
5.354 -1.941 -1.572 0.26 5.90796 4
5.348 -1.958 -1.572 0.31 5.90813 4
5.344 -1.976 -1.573 0.3 5.91077 4
5.316 -1.984 -1.566 0.27 5.88629 4
5.311 -2.002 -1.566 0.34 5.88788 4
0 0 0 0 0 0
5.295 -2.024 -1.564 0.29 5.88045 4
5.287 -2.04 -1.564 0.3 5.87878 4
5.277 -2.055 -1.562 0.31 5.87449 4
5.272 -2.072 -1.563 0.27 5.87624 4
5.271 -2.091 -1.565 0.3 5.8826 4
5.254 -2.103 -1.561 0.29 5.87059 4
5.268 -2.128 -1.568 0.3 5.89397 4
5.262 -2.155 -1.569 0.2 5.89868 4
5.195 -2.146 -1.55 0.31 5.8306 4
5.199 -2.167 -1.553 0.23 5.84271 4
5.248 -2.207 -1.572 0.19 5.90623 4
5.283 -2.242 -1.585 0.27 5.9539 4
5.266 -2.254 -1.582 0.29 5.94256 4
5.269 -2.265 -1.584 0.21 5.94993 4
5.246 -2.275 -1.579 0.25 5.93206 4
5.251 -2.297 -1.583 0.17 5.94602 4
5.272 -2.326 -1.592 0.21 5.97819 4
5.307 -2.361 -1.606 0.18 6.02643 4
5.303 -2.379 -1.607 0.1 6.03025 4
5.302 -2.399 -1.609 0.2 6.03782 4
5.288 -2.403 -1.606 0.18 6.02632 4
5.282 -2.42 -1.606 0.1 6.02787 4
5.283 -2.441 -1.609 0.2 6.038 4
5.27 -2.455 -1.608 0.18 6.03205 4
5.247 -2.464 -1.602 0.11 6.01404 4
5.238 -2.48 -1.602 0.19 6.01277 4
5.225 -2.494 -1.6 0.12 6.00672 4
5.206 -2.515 -1.598 0.26 5.99844 4
5.186 -2.525 -1.594 0.19 5.98423 4
5.206 -2.555 -1.603 0.23 6.01665 4
5.216 -2.581 -1.609 0.25 6.03797 4
5.203 -2.595 -1.608 0.21 6.03249 4
5.19 -2.608 -1.606 0.23 6.02636 4
5.184 -2.616 -1.605 0.24 6.02439 4
5.148 -2.618 -1.596 0.15 5.99191 4
5.123 -2.625 -1.59 0.09 5.97192 4
5.113 -2.64 -1.59 0.18 5.96996 4
5.086 -2.647 -1.584 0.19 5.94837 4
5.064 -2.655 -1.579 0.18 5.93181 4
5.051 -2.669 -1.577 0.11 5.92647 4
4.993 -2.668 -1.562 0.11 5.87266 4
4.951 -2.665 -1.551 0.18 5.83269 4
0 0 0 0 0 0
4.92 -2.669 -1.543 0.1 5.8061 4
4.877 -2.665 -1.531 0.21 5.76466 4
4.847 -2.668 -1.524 0.17 5.73883 4
4.785 -2.653 -1.506 0.05 5.67474 4
4.682 -2.625 -1.475 0.04 5.56663 4
4.672 -2.638 -1.474 0.07 5.56411 4
4.642 -2.641 -1.467 0.03 5.53851 4
4.616 -2.645 -1.46 0.02 5.5168 4
4.606 -2.658 -1.46 0 5.51469 4
0 0 0 0 0 0
5.052 -2.961 -1.62 0 6.07574 4
5.058 -2.975 -1.623 0 6.08836 4
5.055 -2.995 -1.626 0.06 6.09647 4
5.057 -3.018 -1.63 0.2 6.11052 4
5.023 -3.019 -1.621 0.2 6.0805 4
5.03 -3.045 -1.627 0.13 6.10082 4
5.046 -3.076 -1.636 0.19 6.13192 4
5.01 -3.087 -1.629 0.21 6.10601 4
0 0 0 0 0 0
5.012 -3.11 -1.633 0.18 6.12037 4
5.012 -3.132 -1.636 0.11 6.13238 4
5.013 -3.155 -1.64 0.26 6.14604 4
5.026 -3.185 -1.648 0.23 6.1742 4
5.011 -3.197 -1.646 0.27 6.16768 4
4.987 -3.215 -1.643 0.27 6.15677 4
4.96 -3.22 -1.637 0.31 6.13594 4
4.942 -3.23 -1.634 0.21 6.12586 4
4.945 -3.254 -1.639 0.3 6.1423 4
4.935 -3.27 -1.639 0.21 6.14276 4
4.951 -3.303 -1.649 0.28 6.17587 4
4.957 -3.33 -1.654 0.24 6.19649 4
4.945 -3.333 -1.652 0.25 6.18797 4
4.932 -3.347 -1.651 0.23 6.18489 4
4.899 -3.347 -1.643 0.16 6.15646 4
4.882 -3.358 -1.641 0.24 6.14841 4
4.881 -3.38 -1.644 0.24 6.16046 4
4.883 -3.404 -1.649 0.27 6.17658 4
4.877 -3.422 -1.65 0.3 6.18205 4
4.834 -3.426 -1.641 0.24 6.148 4
0 0 0 0 0 0
4.831 -3.447 -1.643 0.27 6.15791 4
4.826 -3.467 -1.646 0.26 6.16601 4
4.8 -3.471 -1.64 0.36 6.14634 4
4.811 -3.502 -1.648 0.29 6.1746 4
4.798 -3.516 -1.647 0.29 6.17217 4
4.77 -3.518 -1.641 0.25 6.14997 4
4.769 -3.552 -1.647 0.29 6.17031 4
4.771 -3.577 -1.652 0.27 6.18761 4
4.775 -3.604 -1.658 0.27 6.20793 4
4.75 -3.609 -1.653 0.32 6.1903 4
4.741 -3.625 -1.653 0.35 6.19275 4
4.716 -3.629 -1.648 0.27 6.17464 4
4.713 -3.639 -1.649 0.27 6.1785 4
4.709 -3.659 -1.652 0.3 6.18806 4
4.679 -3.66 -1.645 0.27 6.16398 4
4.638 -3.651 -1.634 0.22 6.12461 4
4.625 -3.664 -1.633 0.25 6.12227 4
4.61 -3.676 -1.632 0.18 6.11788 4
4.584 -3.691 -1.629 0.18 6.10657 4
4.578 -3.71 -1.631 0.24 6.11411 4
4.568 -3.725 -1.631 0.2 6.11575 4
0 0 0 0 0 0
4.546 -3.731 -1.627 0.21 6.10193 4
4.536 -3.747 -1.628 0.11 6.10456 4
4.528 -3.765 -1.63 0.19 6.11023 4
4.518 -3.78 -1.63 0.23 6.11209 4
4.494 -3.796 -1.628 0.27 6.10377 4
4.491 -3.818 -1.631 0.2 6.11607 4
4.494 -3.845 -1.637 0.25 6.13676 4
4.477 -3.855 -1.635 0.26 6.13007 4
4.468 -3.871 -1.637 0.16 6.13412 4
4.463 -3.892 -1.639 0.28 6.14429 4
4.464 -3.917 -1.645 0.2 6.16248 4
4.453 -3.92 -1.643 0.27 6.1559 4
4.431 -3.925 -1.639 0.23 6.14213 4
4.423 -3.943 -1.641 0.29 6.14842 4
4.412 -3.958 -1.641 0.17 6.15015 4
4.37 -3.945 -1.629 0.21 6.10848 4
4.356 -3.957 -1.629 0.12 6.10624 4
4.348 -3.988 -1.633 0.27 6.12176 4
4.347 -4.012 -1.638 0.17 6.13805 4
0 0 0 0 0 0
4.309 -4.003 -1.627 0.21 6.10235 4
0 0 0 0 0 0
4.292 -4.037 -1.631 0.2 6.11382 4
4.262 -4.034 -1.623 0.23 6.08867 4
4.272 -4.07 -1.633 0.18 6.12222 4
4.242 -4.079 -1.629 0.16 6.10626 4
4.229 -4.092 -1.629 0.23 6.10594 4
4.234 -4.123 -1.636 0.2 6.13208 4
4.191 -4.107 -1.623 0.21 6.08819 4
4.171 -4.113 -1.621 0.12 6.07796 4
4.156 -4.123 -1.619 0.18 6.07393 4
4.122 -4.103 -1.608 0.11 6.03417 4
4.12 4.101 -1.678 0.21 6.05048 4
4.116 4.07 -1.67 0.24 6.02455 4
4.139 4.068 -1.675 0.19 6.04033 4
4.147 4.049 -1.672 0.26 6.03221 4
4.159 4.036 -1.672 0.18 6.03176 4
4.162 4.014 -1.668 0.22 6.01803 4
4.175 4.014 -1.671 0.26 6.02786 4
4.191 4.004 -1.672 0.17 6.03259 4
4.198 3.985 -1.67 0.23 6.02431 4
4.213 3.975 -1.671 0.26 6.02845 4
4.223 3.959 -1.67 0.18 6.02464 4
4.244 3.953 -1.674 0.25 6.03656 4
4.249 3.933 -1.671 0.27 6.02617 4
4.261 3.932 -1.673 0.18 6.03454 4
4.272 3.917 -1.672 0.22 6.03228 4
4.281 3.901 -1.671 0.26 6.02802 4
4.3 3.894 -1.674 0.17 6.03784 4
4.3 3.869 -1.669 0.23 6.02036 4
4.314 3.857 -1.669 0.26 6.02267 4
4.33 3.847 -1.671 0.16 6.02831 4
4.344 3.823 -1.669 0.23 6.02256 4
4.366 3.818 -1.674 0.23 6.03667 4
4.381 3.807 -1.675 0.24 6.04086 4
4.388 3.789 -1.673 0.26 6.03407 4
4.4 3.775 -1.673 0.17 6.03403 4
4.408 3.758 -1.671 0.25 6.0287 4
4.418 3.755 -1.673 0.26 6.03471 4
4.432 3.743 -1.674 0.18 6.03779 4
4.447 3.732 -1.675 0.24 6.04229 4
4.45 3.71 -1.672 0.25 6.03011 4
4.475 3.707 -1.677 0.19 6.04812 4
4.47 3.68 -1.671 0.25 6.02624 4
4.492 3.674 -1.675 0.2 6.04003 4
4.492 3.662 -1.672 0.23 6.03191 4
4.505 3.65 -1.673 0.26 6.0346 4
4.519 3.638 -1.674 0.15 6.0381 4
4.526 3.62 -1.672 0.25 6.03197 4
4.532 3.601 -1.67 0.19 6.02454 4
4.546 3.589 -1.671 0.26 6.02821 4
4.545 3.565 -1.666 0.17 6.01181 4
4.565 3.558 -1.67 0.21 6.02391 4
4.596 3.547 -1.675 0.2 6.04235 4
4.607 3.533 -1.675 0.21 6.04253 4
4.615 3.516 -1.674 0.12 6.03844 4
4.641 3.513 -1.68 0.2 6.05825 4
4.634 3.484 -1.673 0.25 6.03416 4
4.66 3.481 -1.679 0.16 6.05409 4
4.646 3.459 -1.671 0.23 6.02845 4
4.669 3.454 -1.676 0.18 6.04472 4
4.673 3.434 -1.674 0.25 6.03586 4
4.697 3.429 -1.678 0.18 6.05273 4
4.681 3.395 -1.668 0.22 6.01831 4
4.718 3.399 -1.678 0.18 6.05214 4
4.719 3.378 -1.675 0.12 6.04032 4
4.726 3.371 -1.675 0.2 6.04188 4
4.727 3.35 -1.672 0.25 6.03014 4
4.747 3.342 -1.675 0.19 6.04223 4
4.742 3.316 -1.669 0.26 6.02229 4
4.759 3.305 -1.672 0.14 6.03048 4
4.768 3.289 -1.671 0.25 6.02856 4
4.778 3.263 -1.669 0.26 6.02179 4
4.793 3.252 -1.671 0.15 6.02832 4
4.792 3.229 -1.667 0.25 6.01403 4
4.817 3.223 -1.672 0.18 6.03215 4
4.814 3.2 -1.668 0.23 6.01638 4
4.853 3.204 -1.678 0.19 6.05251 4
4.845 3.177 -1.672 0.23 6.03017 4
4.865 3.179 -1.677 0.2 6.04869 4
4.855 3.151 -1.67 0.24 6.02401 4
4.88 3.145 -1.675 0.16 6.04244 4
4.88 3.123 -1.672 0.25 6.03018 4
4.896 3.112 -1.674 0.18 6.03802 4
4.896 3.091 -1.671 0.23 6.02639 4
4.912 3.079 -1.673 0.18 6.03381 4
4.906 3.054 -1.667 0.25 6.01454 4
4.917 3.05 -1.669 0.18 6.02204 4
4.928 3.036 -1.67 0.23 6.02423 4
4.951 3.028 -1.675 0.18 6.04043 4
4.944 3.003 -1.669 0.25 6.02052 4
4.962 2.992 -1.672 0.19 6.03068 4
4.964 2.972 -1.669 0.23 6.0216 4
4.982 2.951 -1.671 0.21 6.02669 4
4.981 2.929 -1.667 0.13 6.01401 4
5.003 2.922 -1.672 0.2 6.03023 4
5.006 2.902 -1.669 0.26 6.02223 4
5.004 2.88 -1.665 0.16 6.00888 4
5.019 2.868 -1.668 0.25 6.01648 4
5.035 2.856 -1.67 0.18 6.02469 4
5.028 2.841 -1.666 0.25 6.01063 4
5.052 2.834 -1.671 0.19 6.02881 4
5.047 2.81 -1.666 0.26 6.01198 4
5.063 2.798 -1.669 0.17 6.02066 4
5.073 2.783 -1.669 0.23 6.02212 4
5.07 2.761 -1.665 0.25 6.00835 4
5.09 2.751 -1.669 0.2 6.02177 4
5.098 2.745 -1.671 0.21 6.02635 4
5.09 2.72 -1.665 0.13 6.00656 4
5.11 2.71 -1.669 0.2 6.02011 4
5.119 2.694 -1.669 0.23 6.02058 4
5.108 2.668 -1.662 0.26 5.99768 4
5.132 2.66 -1.668 0.16 6.01625 4
5.136 2.632 -1.665 0.2 6.00651 4
5.144 2.616 -1.665 0.26 6.00636 4
5.17 2.608 -1.671 0.18 6.02684 4
5.171 2.588 -1.668 0.25 6.01824 4
5.165 2.565 -1.663 0.27 6.00183 4
5.182 2.553 -1.666 0.17 6.0122 4
5.19 2.537 -1.666 0.21 6.01232 4
5.186 2.515 -1.662 0.12 5.99851 4
5.205 2.514 -1.668 0.21 6.01618 4
5.201 2.492 -1.663 0.26 6.00217 4
5.224 2.483 -1.669 0.16 6.02005 4
5.227 2.464 -1.667 0.25 6.01429 4
5.24 2.45 -1.669 0.19 6.02044 4
5.235 2.428 -1.665 0.26 6.00605 4
5.245 2.403 -1.664 0.24 6.00444 4
0 0 0 0 0 0
5.263 2.391 -1.668 0.18 6.0165 4
5.26 2.369 -1.664 0.26 6.00405 4
5.292 2.364 -1.672 0.12 6.03236 4
5.275 2.336 -1.664 0.17 6.00428 4
5.282 2.32 -1.664 0.26 6.00423 4
5.293 2.295 -1.664 0.23 6.00431 4
5.311 2.283 -1.668 0.19 6.01673 4
5.307 2.262 -1.664 0.25 6.00415 4
5.328 2.251 -1.669 0.17 6.01998 4
5.334 2.233 -1.668 0.24 6.01831 4
5.35 2.22 -1.671 0.19 6.02853 4
5.334 2.194 -1.663 0.26 6.00256 4
5.344 2.189 -1.666 0.18 6.01046 4
5.354 2.173 -1.667 0.23 6.01383 4
5.344 2.149 -1.661 0.24 5.99462 4
5.37 2.14 -1.668 0.18 6.01654 4
5.369 2.121 -1.665 0.26 6.00808 4
5.385 2.107 -1.668 0.15 6.0183 4
5.377 2.085 -1.663 0.23 6.00208 4
0 0 0 0 0 0
5.4 2.064 -1.668 0.24 6.01684 4
0 0 0 0 0 0
5.395 2.023 -1.662 0.22 5.99673 4
5.424 2.015 -1.669 0.18 6.02209 4
5.42 1.994 -1.666 0.12 6.01066 4
5.438 1.982 -1.67 0.2 6.02404 4
5.423 1.957 -1.663 0.23 6.00036 4
5.441 1.934 -1.666 0.12 6.01002 4
5.474 1.927 -1.675 0.2 6.04017 4
5.451 1.9 -1.665 0.21 6.00796 4
5.481 1.891 -1.673 0.2 6.03458 4
5.462 1.865 -1.665 0.23 6.00699 4
5.484 1.853 -1.67 0.19 6.02468 4
5.472 1.839 -1.665 0.24 6.00807 4
5.487 1.825 -1.668 0.17 6.01831 4
5.484 1.805 -1.665 0.23 6.0087 4
5.5 1.791 -1.669 0.19 6.02024 4
5.484 1.767 -1.662 0.25 5.99657 4
5.526 1.762 -1.674 0.16 6.03685 4
5.506 1.736 -1.665 0.24 6.00849 4
5.508 1.708 -1.663 0.23 6.00174 4
5.548 1.702 -1.675 0.18 6.04009 4
0 0 0 0 0 0
5.525 1.675 -1.665 0.11 6.00862 4
5.541 1.661 -1.669 0.21 6.02056 4
5.531 1.639 -1.664 0.12 6.00393 4
5.543 1.614 -1.665 0.2 6.0085 4
5.555 1.599 -1.668 0.19 6.0164 4
5.549 1.579 -1.664 0.11 6.00446 4
5.563 1.564 -1.667 0.21 6.01431 4
5.572 1.547 -1.668 0.12 6.01852 4
5.589 1.533 -1.672 0.18 6.0318 4
5.57 1.509 -1.665 0.11 6.00618 4
5.582 1.503 -1.668 0.2 6.01664 4
5.575 1.482 -1.664 0.11 6.00382 4
5.587 1.467 -1.666 0.21 6.01184 4
5.581 1.446 -1.663 0.11 6.00034 4
5.589 1.43 -1.664 0.2 6.00423 4
5.599 1.414 -1.666 0.11 6.0103 4
5.605 1.397 -1.666 0.2 6.01192 4
5.591 1.374 -1.661 0.11 5.99217 4
5.603 1.349 -1.662 0.11 5.99797 4
5.615 1.334 -1.665 0.2 6.00666 4
0 0 0 0 0 0
5.61 1.314 -1.662 0.11 5.99674 4
5.621 1.298 -1.664 0.19 6.00411 4
5.62 1.279 -1.662 0.13 5.99854 4
5.626 1.252 -1.662 0.31 5.99847 4
5.622 1.233 -1.66 0.32 5.99022 4
5.635 1.217 -1.663 0.3 5.99999 4
5.645 1.201 -1.665 0.3 6.00672 4
5.632 1.18 -1.659 0.29 5.98866 4
5.654 1.166 -1.665 0.29 6.00829 4
5.673 1.151 -1.67 0.16 6.02467 4
5.661 1.13 -1.665 0.21 6.008 4
5.684 1.126 -1.672 0.17 6.03086 4
5.668 1.104 -1.666 0.11 6.01004 4
5.681 1.088 -1.669 0.18 6.02022 4
5.675 1.068 -1.666 0.1 6.01014 4
5.697 1.054 -1.672 0.17 6.03012 4
5.663 1.029 -1.66 0.05 5.99033 4
5.679 1.004 -1.663 0.11 6.00205 4
5.705 0.991 -1.671 0.18 6.02672 4
5.691 0.97 -1.665 0.1 6.00838 4
0 0 0 0 0 0
5.694 0.952 -1.665 0.19 6.00834 4
5.706 0.936 -1.668 0.18 6.01804 4
5.709 0.918 -1.668 0.1 6.01811 4
5.705 0.898 -1.666 0.18 6.01074 4
5.718 0.873 -1.669 0.16 6.02023 4
5.708 0.853 -1.665 0.04 6.00675 4
5.714 0.836 -1.666 0.16 6.01034 4
5.728 0.819 -1.669 0.17 6.02215 4
5.734 0.802 -1.671 0.16 6.02613 4
5.725 0.782 -1.667 0.16 6.01382 4
5.734 0.774 -1.669 0.16 6.02191 4
5.737 0.756 -1.669 0.16 6.02248 4
5.735 0.738 -1.668 0.09 6.01806 4
5.741 0.72 -1.669 0.08 6.02188 4
